# .PCD v0.7 - Point Cloud Data file format
VERSION 0.7
FIELDS x y z
SIZE 4 4 4
TYPE F F F
COUNT 1 1 1
WIDTH 1532
HEIGHT 1
VIEWPOINT 0 0 0 1 0 0 0
POINTS 1532
DATA ascii
-2.0617998 -0.27039999 5.915
0.48675808 -0.30212569 4.4060001
-0.65396571 -0.57469714 5.2020001
-2.0505333 -0.27039999 5.915
-0.64405715 -0.57469714 5.2020001
-0.6341486 -0.57469714 5.2020001
-2.0392666 -0.27039999 5.915
-0.62424004 -0.57469714 5.2020001
-2.0279999 -0.27039999 5.915
-0.61433148 -0.57469714 5.2020001
-2.0167334 -0.27039999 5.915
-0.60442287 -0.57469714 5.2020001
-2.0054667 -0.27039999 5.915
-0.59451425 -0.57469714 5.2020001
-0.58460569 -0.57469714 5.2020001
-0.57469714 -0.57469714 5.2020001
-0.56478858 -0.57469714 5.2020001
-0.55488002 -0.57469714 5.2020001
-0.54497147 -0.57469714 5.2020001
-0.53506291 -0.57469714 5.2020001
-0.52515429 -0.57469714 5.2020001
-0.48552001 -0.57469714 5.2020001
0.047400005 0.19908001 4.9770002
-0.4557943 -0.57469714 5.2020001
0.056880001 0.19908001 4.9770002
0.066360004 0.19908001 4.9770002
-0.43597713 -0.57469714 5.2020001
0.075840004 0.19908001 4.9770002
-0.42606857 -0.57469714 5.2020001
-0.41616002 -0.57469714 5.2020001
-0.45503885 0.13517562 2.063
-0.40625146 -0.57469714 5.2020001
-0.44403619 0.13556856 2.063
-0.39634284 -0.57469714 5.2020001
-0.43421239 0.13556857 2.063
-0.38643429 -0.57469714 5.2020001
-0.42438859 0.13556856 2.063
0.94360566 -0.68857712 4.4629998
-0.41456473 0.13556857 2.063
-0.40474099 0.13556856 2.063
0.96627492 -0.68574351 4.4630003
-0.39688188 0.13753334 2.063
0.97760952 -0.68432665 4.4629998
0.98611051 -0.68432665 4.4629998
0.99461132 -0.68432665 4.4629998
1.0031123 -0.68432665 4.4629998
1.0116132 -0.68857712 4.4629998
1.0286151 -0.68857712 4.4629998
-2.3202798 -1.7429333 5.7189999
-2.3093865 -1.7429333 5.7189999
-2.2984934 -1.7429333 5.7189999
-2.2876 -1.7429333 5.7189999
-2.2767067 -1.7429333 5.7189999
1.6339201 -0.99360001 3.8640001
-2.2658134 -1.7429333 5.7189999
1.6412799 -0.99360001 3.8640001
-2.25492 -1.7429333 5.7189999
-2.2440267 -1.7429333 5.7189999
-2.2331333 -1.7429333 5.7189999
-2.22224 -1.7429333 5.7189999
-2.2113466 -1.7429333 5.7189999
1.6928 -0.99360001 3.8640001
-2.200453 -1.7429333 5.7189999
1.70384 -0.99360001 3.8640001
-2.1895599 -1.7429333 5.7189999
1.0490476 -0.30212569 4.4060001
1.05744 -0.30212569 4.4060001
1.0658324 -0.30212569 4.4060001
-2.3897104 -1.1787809 5.6259999
1.0742248 -0.30212569 4.4060001
-2.3789942 -1.1787809 5.6259999
1.0826172 -0.30212569 4.4060001
-2.368278 -1.1787809 5.6259999
-0.0092152376 -1.6587428 4.8379998
1.099402 -0.30212569 4.4060001
0 -1.6587428 4.8379998
0.027645715 -1.6587428 4.8379998
-2.3254135 -1.1787809 5.6259999
-2.314697 -1.1787809 5.6259999
-2.3039808 -1.1787809 5.6259999
-2.2932646 -1.1787809 5.6259999
-2.2825487 -1.1787809 5.6259999
0.3550286 -1.3964458 4.1420002
-2.2718325 -1.1787809 5.6259999
0.36291811 -1.3964458 4.1420002
-2.261116 -1.1787809 5.6259999
-2.2503998 -1.1787809 5.6259999
0.41814479 -1.3964458 4.1420002
0.4260343 -1.3964458 4.1420002
0.43392384 -1.3964458 4.1420002
0.44181335 -1.3964458 4.1420002
-2.4459429 -0.60094285 5.5349998
-2.4354 -0.60094285 5.5349998
0.036350474 -1.2722666 4.7709999
-2.4037714 -0.60094285 5.5349998
0.045438092 -1.2722666 4.7709999
-0.20465238 0.12651238 3.9070001
0.054525714 -1.2722666 4.7709999
-0.19348952 0.12651238 3.9070001
0.063613333 -1.2722666 4.7709999
-0.18604763 0.12651238 3.9070001
-2.3721428 -0.60094285 5.5349998
0.072700948 -1.2722666 4.7709999
-0.17860572 0.12651238 3.9070001
-2.3615999 -0.60094285 5.5349998
0.08178857 -1.2722666 4.7709999
-0.1637219 0.12651238 3.9070001
-2.3510571 -0.60094285 5.5349998
0.095419995 -1.2722666 4.7709999
-2.3405142 -0.60094285 5.5349998
0.10905143 -1.2722666 4.7709999
0.11813904 -1.2722666 4.7709999
-2.3299713 -0.60094285 5.5349998
0.12722667 -1.2722666 4.7709999
-2.3194284 -0.60094285 5.5349998
0.13631429 -1.2722666 4.7709999
-2.3088856 -0.60094285 5.5349998
0.1454019 -1.2722666 4.7709999
-1.1441981 0.49682286 3.9519999
0.15448952 -1.2722666 4.7709999
-1.1366705 0.49682286 3.9519999
0.16357714 -1.2722666 4.7709999
-1.0011733 0.49682286 3.9519999
-1.4379199 -1.7429333 5.7189999
-1.3507733 -1.7429333 5.7189999
-1.33988 -1.7429333 5.7189999
-0.60220951 0.49682286 3.9519999
-0.59468186 0.49682286 3.9519999
-0.58715427 0.49682286 3.9519999
-0.57586282 0.49682286 3.9519999
-0.56457144 0.49682286 3.9519999
-0.55704379 0.49682286 3.9519999
-0.54575241 0.49682286 3.9519999
-0.5344609 0.49682286 3.9519999
-0.51564187 0.49682286 3.9519999
-0.50435048 0.49682286 3.9519999
-2.8114285 -0.74190474 5.125
-2.8016667 -0.74190474 5.125
-2.7919047 -0.74190474 5.125
-2.7821429 -0.74190474 5.125
-2.7723808 -0.74190474 5.125
-2.762619 -0.74190474 5.125
-2.7528572 -0.74190474 5.125
-2.7430952 -0.74190474 5.125
-2.7333333 -0.74190474 5.125
1.4358934 -1.3964458 4.1420002
-2.7235713 -0.74190474 5.125
1.4437829 -1.3964458 4.1420002
1.6885182 -0.054585718 3.8210001
-2.7138095 -0.74190474 5.125
-1.1894971 -1.1787809 5.6259999
1.4556172 -1.3964458 4.1420002
1.6957963 -0.054585718 3.8210001
-2.7040477 -0.74190474 5.125
-1.1787809 -1.1787809 5.6259999
1.4674515 -1.3964458 4.1420002
1.7030743 -0.054585718 3.8210001
-2.6942856 -0.74190474 5.125
-1.1680647 -1.1787809 5.6259999
1.475341 -1.3964458 4.1420002
1.7103523 -0.050946668 3.8210001
-2.6845238 -0.74190474 5.125
-1.1573485 -1.1787809 5.6259999
-2.6747618 -0.74190474 5.125
-1.1359162 -1.1787809 5.6259999
-0.34628573 -1.6737143 5.0500002
-0.097859047 0.49682286 3.9519999
-0.33666667 -1.6737143 5.0500002
-0.082803808 0.49682286 3.9519999
-0.32704765 -1.6737143 5.0500002
-0.075276189 0.49682286 3.9519999
-0.31742859 -1.6737143 5.0500002
-0.063984759 0.49682286 3.9519999
-0.30780953 -1.6737143 5.0500002
-0.052693333 0.49682286 3.9519999
-0.045165714 0.49682286 3.9519999
-1.0637714 -0.28639999 4.296
-1.0555886 -0.28639999 4.296
-1.0474057 -0.28639999 4.296
1.6245841 -0.44422218 3.9979999
-1.0351315 -0.28639999 4.296
-1.0228572 -0.28639999 4.296
-1.0146742 -0.28639999 4.296
-1.0064914 -0.28639999 4.296
-2.2706189 -1.0079333 5.8150001
-2.2595429 -1.0079333 5.8150001
-2.2041619 -1.0079333 5.8150001
-2.1930857 -1.0079333 5.8150001
-2.1820097 -1.0079333 5.8150001
-2.1709332 -1.0079333 5.8150001
1.6372191 0.12651238 3.9070001
1.6744286 0.12651238 3.9070001
-0.056068573 -0.72889143 4.9060001
-2.6724188 -1.6495275 4.8379998
1.6818705 0.12651238 3.9070001
-0.046723809 -0.72889143 4.9060001
-2.6632037 -1.6449199 4.8379998
-0.037379049 -0.72889143 4.9060001
-2.6539886 -1.6449199 4.8379998
1.7041962 0.12651238 3.9070001
-0.028034287 -0.72889143 4.9060001
-2.6447732 -1.6449199 4.8379998
1.7153591 0.12651238 3.9070001
-2.6355579 -1.6449199 4.8379998
-2.6263428 -1.6449199 4.8379998
1.5951904 -0.5758571 3.4749999
1.605119 -0.5758571 3.4749999
1.4452419 -1.0220495 4.1919999
1.4652038 -1.0220495 4.1919999
0.52532381 -0.6546343 4.243
0.53340572 -0.6546343 4.243
0.54552853 -0.6546343 4.243
0.5576514 -0.6546343 4.243
0.57381523 -0.6546343 4.243
0.58189714 -0.6546343 4.243
-1.2001106 -0.29373333 4.4060001
-1.1917181 -0.29373333 4.4060001
-1.5838952 -1.0079333 5.8150001
-1.572819 -1.0079333 5.8150001
-1.5617428 -1.0079333 5.8150001
-1.5506667 -1.0079333 5.8150001
-1.5395905 -1.0079333 5.8150001
-1.5285144 -1.0079333 5.8150001
-1.5174382 -1.0079333 5.8150001
-1.506362 -1.0079333 5.8150001
-1.4952857 -1.0079333 5.8150001
-1.4842095 -1.0079333 5.8150001
-1.4731333 -1.0079333 5.8150001
-1.450981 -1.0079333 5.8150001
-1.4399048 -1.0079333 5.8150001
-1.4288286 -1.0079333 5.8150001
-1.4177524 -1.0079333 5.8150001
-1.4066762 -1.0079333 5.8150001
-1.3956 -1.0079333 5.8150001
-1.9716115 -1.5818743 6.0180001
-1.3845237 -1.0079333 5.8150001
-1.9601486 -1.5818743 6.0180001
-1.9486856 -1.5818743 6.0180001
-1.9372228 -1.5818743 6.0180001
-1.92576 -1.5818743 6.0180001
1.6334096 -0.077047616 4.0450001
-1.9142972 -1.5818743 6.0180001
0.14744094 0.048759997 1.219
1.6411144 -0.077047616 4.0450001
-1.9028343 -1.5818743 6.0180001
0.1548347 0.044958308 1.2173333
-1.8913715 -1.5818743 6.0180001
0.16398621 0.045326158 1.2178462
-2.6544001 -1.8486001 4.9770002
-2.6354401 -1.8486001 4.9770002
0.094102859 -0.28639999 4.296
0.10637714 -0.28639999 4.296
0.35628572 -0.66285712 4.3499999
1.2122858 -0.6546343 4.243
0.36457142 -0.66285712 4.3499999
1.2244086 -0.6546343 4.243
1.2365315 -0.6546343 4.243
0.38942856 -0.66285712 4.3499999
1.2446133 -0.6546343 4.243
0.39771426 -0.66285712 4.3499999
1.2526952 -0.6546343 4.243
0.40599999 -0.66285712 4.3499999
1.2648181 -0.6546343 4.243
0.41428572 -0.66285712 4.3499999
1.2769409 -0.6546343 4.243
1.3254323 -0.6546343 4.243
1.3335143 -0.6546343 4.243
1.3456371 -0.6546343 4.243
1.35776 -0.6546343 4.243
1.3658419 -0.6546343 4.243
1.3739238 -0.6546343 4.243
1.3820057 -0.6546343 4.243
1.3941286 -0.6546343 4.243
1.4062514 -0.6546343 4.243
1.4143333 -0.6546343 4.243
1.4224153 -0.6546343 4.243
1.4345381 -0.6546343 4.243
0.51552004 -0.28639999 4.296
0.52370286 -0.28639999 4.296
0.53188568 -0.28639999 4.296
0.58916575 -0.28639999 4.296
-0.59299427 0.15477523 1.9579999
0.59734857 -0.28639999 4.296
0.60553139 -0.28639999 4.296
-0.4392857 -0.74190474 5.125
-0.40511906 -0.74190474 5.125
-0.3904762 -0.74190474 5.125
0.83685708 -0.66285712 4.3499999
-0.38071427 -0.74190474 5.125
0.84514284 -0.66285712 4.3499999
-0.37095237 -0.74190474 5.125
-0.36119047 -0.74190474 5.125
-0.35142857 -0.74190474 5.125
0.87414283 -0.66285712 4.3499999
-2.0879924 -1.5980724 6.1240001
-0.34166667 -0.74190474 5.125
0.88657141 -0.66285712 4.3499999
-2.0763276 -1.5980724 6.1240001
-0.33190477 -0.74190474 5.125
-2.0646629 -1.5980724 6.1240001
-0.32214284 -0.74190474 5.125
-2.0529981 -1.5980724 6.1240001
-0.31238094 -0.74190474 5.125
-2.0413334 -1.5980724 6.1240001
-0.30261904 -0.74190474 5.125
-0.29285714 -0.74190474 5.125
-2.0296686 -1.5980724 6.1240001
-0.28309524 -0.74190474 5.125
-2.0180039 -1.5980724 6.1240001
1.0688571 -0.66285712 4.3499999
1.0771428 -0.66285712 4.3499999
0.22527522 -0.67157525 4.4629998
1.0854285 -0.66285712 4.3499999
0.23802666 -0.67157525 4.4629998
1.0937144 -0.66285712 4.3499999
0.24652763 -0.67157525 4.4629998
1.102 -0.66285712 4.3499999
0.25502858 -0.67157525 4.4629998
1.1102856 -0.66285712 4.3499999
0.26352951 -0.67157525 4.4629998
-2.7221904 -1.6640953 5.0500002
0.27203047 -0.67157525 4.4629998
-2.7125716 -1.6640953 5.0500002
0.28478187 -0.67157525 4.4629998
-2.7029524 -1.6640953 5.0500002
0.2975333 -0.67157525 4.4629998
-2.6933334 -1.6640953 5.0500002
0.30603427 -0.67157525 4.4629998
-2.6837144 -1.6640953 5.0500002
0.31453523 -0.67157525 4.4629998
-2.6740952 -1.6640953 5.0500002
0.32303616 -0.67157525 4.4629998
-2.6644764 -1.6640953 5.0500002
0.33153713 -0.67157525 4.4629998
1.1931428 -0.66285712 4.3499999
0.34428853 -0.67157525 4.4629998
0.19302477 -0.29373333 4.4060001
0.20561334 -0.29373333 4.4060001
1.1456 -0.28639999 4.296
1.1783315 -0.28639999 4.296
1.1865143 -0.28639999 4.296
0.32730284 -0.29373333 4.4060001
1.1946971 -0.28639999 4.296
1.20288 -0.28639999 4.296
0.34408763 -0.29373333 4.4060001
1.2151542 -0.28639999 4.296
0.35247999 -0.29373333 4.4060001
1.2274286 -0.28639999 4.296
0.36506858 -0.29373333 4.4060001
1.2356114 -0.28639999 4.296
0.37765715 -0.29373333 4.4060001
1.2437943 -0.28639999 4.296
0.38604954 -0.29373333 4.4060001
1.2519772 -0.28639999 4.296
0.3944419 -0.29373333 4.4060001
1.2642515 -0.28639999 4.296
0.4028343 -0.29373333 4.4060001
1.2765257 -0.28639999 4.296
1.2847085 -0.28639999 4.296
1.2928914 -0.28639999 4.296
0.43640381 -0.29373333 4.4060001
1.3051658 -0.28639999 4.296
0.4447962 -0.29373333 4.4060001
1.31744 -0.28639999 4.296
0.4531886 -0.29373333 4.4060001
1.3256229 -0.28639999 4.296
1.3338057 -0.28639999 4.296
0.48675808 -0.29373333 4.4060001
-0.64405715 -0.56478858 5.2020001
-0.6341486 -0.56478858 5.2020001
-0.61433148 -0.56478858 5.2020001
-0.60442287 -0.56478858 5.2020001
-0.59451425 -0.56478858 5.2020001
-0.58460569 -0.56478858 5.2020001
-0.57469714 -0.56478858 5.2020001
-0.56478858 -0.56478858 5.2020001
-0.55488002 -0.56478858 5.2020001
-0.54497147 -0.56478858 5.2020001
-0.53506291 -0.56478858 5.2020001
-0.52515429 -0.56478858 5.2020001
-0.51524568 -0.56478858 5.2020001
-0.48552001 -0.56478858 5.2020001
-0.46570286 -0.56478858 5.2020001
0.047400005 0.20856 4.9770002
-0.4557943 -0.56478858 5.2020001
0.056880001 0.20856 4.9770002
0.066360004 0.20856 4.9770002
-0.43597713 -0.56478858 5.2020001
0.075840004 0.20856 4.9770002
-0.42606857 -0.56478858 5.2020001
-0.41616002 -0.56478858 5.2020001
-0.45385998 0.14342761 2.063
-0.40625146 -0.56478858 5.2020001
-0.44354498 0.1449012 2.063
-0.43421239 0.14539239 2.063
-0.42438856 0.14539239 2.063
-0.41456473 0.14539239 2.063
0.95210665 -0.67157525 4.4629998
-0.40474096 0.14539239 2.063
0.96485806 -0.67157525 4.4629998
-0.39688191 0.14539239 2.0630002
0.97760952 -0.67157525 4.4629998
-0.38902286 0.1493219 2.063
0.98611051 -0.67157525 4.4629998
0.99461132 -0.67157525 4.4629998
1.0031123 -0.67157525 4.4629998
1.0116132 -0.67157525 4.4629998
1.0243647 -0.67157525 4.4629998
-2.3202798 -1.7320399 5.7189999
-2.3093865 -1.7320399 5.7189999
-2.2984934 -1.7320399 5.7189999
-2.2767067 -1.7320399 5.7189999
1.6339201 -0.98623997 3.8640001
-2.2658134 -1.7320399 5.7189999
1.6449599 -0.98623997 3.8640001
-2.25492 -1.7320399 5.7189999
1.656 -0.98623997 3.8640001
-2.2440267 -1.7320399 5.7189999
1.66336 -0.98623997 3.8640001
-2.2331333 -1.7320399 5.7189999
1.6744 -0.98623997 3.8640001
-2.22224 -1.7320399 5.7189999
1.6854401 -0.98623997 3.8640001
-2.2113466 -1.7320399 5.7189999
1.6928 -0.98623997 3.8640001
-2.200453 -1.7320399 5.7189999
1.70384 -0.98623997 3.8640001
-2.1895599 -1.7320399 5.7189999
1.0490476 -0.29373333 4.4060001
1.05744 -0.29373333 4.4060001
-2.3897104 -1.1680647 5.6259999
1.0742248 -0.29373333 4.4060001
-2.3789942 -1.1680647 5.6259999
1.0826172 -0.29373333 4.4060001
-2.368278 -1.1680647 5.6259999
1.0952058 -0.29373333 4.4060001
1.1077944 -0.29373333 4.4060001
1.1161867 -0.29373333 4.4060001
0.027645715 -1.6449199 4.8379998
0.03686095 -1.6495275 4.8379998
-2.314697 -1.1680647 5.6259999
-2.3039808 -1.1680647 5.6259999
-2.2932646 -1.1680647 5.6259999
-2.2825487 -1.1680647 5.6259999
0.3550286 -1.3806667 4.1420002
-2.2718325 -1.1680647 5.6259999
0.36291811 -1.3846115 4.1420002
-2.261116 -1.1680647 5.6259999
-2.2503998 -1.1680647 5.6259999
0.40236571 -1.3806667 4.1420002
0.41814479 -1.3846115 4.1420002
0.4260343 -1.3846115 4.1420002
0.43392384 -1.3846115 4.1420002
0.44181335 -1.3846115 4.1420002
0.4575924 -1.3806667 4.1420002
0.46548191 -1.3806667 4.1420002
-2.4354 -0.59039998 5.5349998
0.47337145 -1.3806667 4.1420002
-2.4248569 -0.59039998 5.5349998
0.036350474 -1.2631791 4.7709999
0.045438092 -1.2631791 4.7709999
0.50492954 -1.3806667 4.1420002
-2.3932285 -0.59039998 5.5349998
0.054525714 -1.2631791 4.7709999
0.51281905 -1.3885562 4.1420002
-0.19348952 0.13395429 3.9070001
0.063613333 -1.2631791 4.7709999
0.52596825 -1.3859265 4.1420002
-0.18604763 0.13395429 3.9070001
-2.3721428 -0.59039998 5.5349998
0.072700948 -1.2631791 4.7709999
0.53648764 -1.3846115 4.1420002
-0.17488477 0.13395429 3.9070001
0.08178857 -1.2631791 4.7709999
-0.1637219 0.13395429 3.9070001
-2.3510571 -0.59039998 5.5349998
0.095419995 -1.2631791 4.7709999
-2.3405142 -0.59039998 5.5349998
0.10905143 -1.2631791 4.7709999
0.11813904 -1.2631791 4.7709999
-2.3299713 -0.59039998 5.5349998
0.12722667 -1.2631791 4.7709999
-2.3194284 -0.59039998 5.5349998
0.13631429 -1.2631791 4.7709999
-2.3088856 -0.59039998 5.5349998
0.1454019 -1.2631791 4.7709999
-1.1441981 0.50435048 3.9519999
0.16357714 -1.2631791 4.7709999
-1.1065599 0.50435048 3.9519999
-1.0990324 0.50435048 3.9519999
-1.3507733 -1.7320399 5.7189999
-1.33988 -1.7320399 5.7189999
-1.3289865 -1.7320399 5.7189999
-0.61726475 0.50435048 3.9519999
-0.60597336 0.50435048 3.9519999
-0.59468186 0.50435048 3.9519999
-0.58715427 0.50435048 3.9519999
-0.57586282 0.50435048 3.9519999
-0.56457144 0.50435048 3.9519999
-0.55704379 0.50435048 3.9519999
-0.54575241 0.50435048 3.9519999
-0.5344609 0.50435048 3.9519999
-0.52693331 0.50435048 3.9519999
-0.51564187 0.50435048 3.9519999
-0.50435048 0.50435048 3.9519999
-0.42907426 0.50435048 3.9519999
-2.8114285 -0.73214287 5.125
-2.8016667 -0.73214287 5.125
-2.7919047 -0.73214287 5.125
1.3727771 -1.3806667 4.1420002
-2.7821429 -0.73214287 5.125
1.3846115 -1.3806667 4.1420002
-2.7723808 -0.73214287 5.125
1.3964458 -1.3806667 4.1420002
-2.762619 -0.73214287 5.125
-2.7528572 -0.73214287 5.125
1.4122248 -1.3806667 4.1420002
-2.7430952 -0.73214287 5.125
1.4201144 -1.3806667 4.1420002
-2.7333333 -0.73214287 5.125
1.4358934 -1.3846115 4.1420002
-2.7235713 -0.73214287 5.125
1.4437829 -1.3846115 4.1420002
-2.7138095 -0.73214287 5.125
1.4569321 -1.3859265 4.1420002
1.6957963 -0.043668572 3.8210001
-2.7040477 -0.73214287 5.125
-1.1787809 -1.1680647 5.6259999
1.4674515 -1.3806667 4.1420002
1.7030743 -0.043668572 3.8210001
-2.6942856 -0.73214287 5.125
-1.1680647 -1.1680647 5.6259999
1.7103523 -0.043668572 3.8210001
-2.6845238 -0.73214287 5.125
-1.1573485 -1.1680647 5.6259999
-2.6747618 -0.73214287 5.125
-1.1466323 -1.1680647 5.6259999
-2.665 -0.73214287 5.125
-1.1359162 -1.1680647 5.6259999
-1.1251999 -1.1680647 5.6259999
-0.082803808 0.50435048 3.9519999
-0.32704765 -1.6640953 5.0500002
-0.075276189 0.50435048 3.9519999
-0.31742859 -1.6640953 5.0500002
-0.067748569 0.50435048 3.9519999
-0.30780953 -1.6640953 5.0500002
-1.0965029 -0.27003428 4.296
-1.0842285 -0.27412573 4.296
-1.0719543 -0.2741257 4.296
-1.0637714 -0.2741257 4.296
-1.0555886 -0.2741257 4.296
-1.0474057 -0.27821714 4.296
1.6220456 -0.43406856 3.9979999
-1.0351315 -0.27821714 4.296
-1.0228572 -0.27821714 4.296
-1.0146742 -0.2741257 4.296
-1.0064914 -0.27821714 4.296
-2.2595429 -0.99685711 5.8150001
-2.2152381 -0.99685711 5.8150001
-2.2041619 -0.99685711 5.8150001
-2.1930857 -0.99685711 5.8150001
-2.1820097 -0.99685711 5.8150001
-2.1709332 -0.99685711 5.8150001
-0.065413341 -0.71020192 4.9060001
1.34144 -1.0140647 4.1919999
-0.056068573 -0.71487427 4.9060001
-2.6724188 -1.6310971 4.8379998
-0.046723809 -0.71487427 4.9060001
-2.6632037 -1.6310971 4.8379998
-0.037379049 -0.71487427 4.9060001
1.7041962 0.13395429 3.9070001
-0.028034287 -0.71487427 4.9060001
-2.6447732 -1.6310971 4.8379998
1.3813637 -1.0140647 4.1919999
1.7153591 0.13395429 3.9070001
-2.6355579 -1.6310971 4.8379998
-2.6263428 -1.6310971 4.8379998
1.5951904 -0.56592858 3.4749999
-2.6171274 -1.6310971 4.8379998
1.605119 -0.56261903 3.4749999
1.6150476 -0.56261903 3.4749999
1.6249762 -0.56261903 3.4749999
1.4452419 -1.0140647 4.1919999
1.6349046 -0.56261903 3.4749999
1.4532266 -1.0140647 4.1919999
1.4612114 -1.0140647 4.1919999
0.5172419 -0.64655238 4.243
0.52532381 -0.64655238 4.243
0.53340572 -0.64655238 4.243
0.54552853 -0.64655238 4.243
0.5576514 -0.64655238 4.243
0.57381523 -0.64655238 4.243
0.58189714 -0.64655238 4.243
-1.2001106 -0.28534096 4.4060001
-1.1917181 -0.28534096 4.4060001
-1.6171237 -0.99685711 5.8150001
-1.6060476 -0.99685711 5.8150001
-1.5949714 -0.99685711 5.8150001
-1.5838952 -0.99685711 5.8150001
-1.572819 -0.99685711 5.8150001
-1.5617428 -0.99685711 5.8150001
-1.5506667 -0.99685711 5.8150001
-1.5395905 -0.99685711 5.8150001
-1.5285144 -0.99685711 5.8150001
-1.5174382 -0.99685711 5.8150001
-1.506362 -0.99685711 5.8150001
-1.4952857 -0.99685711 5.8150001
-1.4842095 -0.99685711 5.8150001
-1.4731333 -0.99685711 5.8150001
-1.4620571 -0.99685711 5.8150001
-1.450981 -0.99685711 5.8150001
-1.4399048 -0.99685711 5.8150001
-1.4288286 -0.99685711 5.8150001
-1.4177524 -0.99685711 5.8150001
-1.4066762 -0.99685711 5.8150001
-1.3956 -0.99685711 5.8150001
-1.9716115 -1.5704114 6.0180001
1.587181 -0.061638094 4.0450001
-1.9601486 -1.5704114 6.0180001
1.5948857 -0.061638094 4.0450001
1.6025904 -0.061638094 4.0450001
-1.9486856 -1.5704114 6.0180001
1.6141477 -0.061638094 4.0450001
-1.9372228 -1.5704114 6.0180001
1.6257048 -0.061638094 4.0450001
-1.92576 -1.5704114 6.0180001
1.6334096 -0.065490469 4.0450001
-1.9142972 -1.5704114 6.0180001
0.14649107 0.054881386 1.219
1.6411144 -0.065490469 4.0450001
-1.9028343 -1.5704114 6.0180001
0.15436618 0.054549869 1.2186875
0.16098541 0.054564767 1.219
-2.6638801 -1.83912 4.9770002
-2.6544001 -1.83912 4.9770002
-2.6449199 -1.83912 4.9770002
-2.6354401 -1.83912 4.9770002
0.098194286 -0.2741257 4.296
-2.6259601 -1.83912 4.9770002
0.10637714 -0.2741257 4.296
0.11456 -0.2741257 4.296
0.36457142 -0.65457141 4.3499999
1.2244086 -0.64655238 4.243
0.37285715 -0.65457141 4.3499999
1.2365315 -0.64655238 4.243
0.38942856 -0.65457141 4.3499999
1.2446133 -0.64655238 4.243
0.39771426 -0.65457141 4.3499999
1.2526952 -0.64655238 4.243
0.40599999 -0.65457141 4.3499999
1.2648181 -0.64655238 4.243
0.41428572 -0.65457141 4.3499999
1.3173505 -0.64655238 4.243
1.3254323 -0.64655238 4.243
1.3335143 -0.64655238 4.243
1.3456371 -0.64655238 4.243
1.35776 -0.64655238 4.243
1.3658419 -0.64655238 4.243
1.3739238 -0.64655238 4.243
1.3820057 -0.64655238 4.243
1.3900876 -0.64655238 4.243
1.4062514 -0.64655238 4.243
1.4143333 -0.64655238 4.243
1.4224153 -0.64655238 4.243
1.4345381 -0.64655238 4.243
1.446661 -0.64655238 4.243
1.4547428 -0.64655238 4.243
0.51552004 -0.27821714 4.296
0.52370286 -0.27821714 4.296
0.53188568 -0.27821714 4.296
-0.61350667 0.16409904 1.9580001
-0.59299427 0.16409905 1.9579999
-0.57434666 0.16689619 1.9579999
-0.4002381 -0.73214287 5.125
0.82857144 -0.65457141 4.3499999
-0.3904762 -0.73214287 5.125
0.83685708 -0.65457141 4.3499999
-0.38071427 -0.73214287 5.125
0.84514284 -0.65457141 4.3499999
-0.37095237 -0.73214287 5.125
0.85342854 -0.65457141 4.3499999
-0.36119047 -0.73214287 5.125
0.86171424 -0.65457141 4.3499999
-0.35142857 -0.73214287 5.125
0.87414283 -0.65457141 4.3499999
-2.0879924 -1.5864077 6.1240001
-0.34166667 -0.73214287 5.125
-2.0763276 -1.5864077 6.1240001
-2.0646629 -1.5864077 6.1240001
-0.32214284 -0.73214287 5.125
-2.0529981 -1.5864077 6.1240001
-0.31238094 -0.73214287 5.125
-2.0413334 -1.5864077 6.1240001
-2.0296686 -1.5864077 6.1240001
-2.0180039 -1.5864077 6.1240001
-2.0063391 -1.5864077 6.1240001
1.0647142 -0.65457141 4.3499999
0.2125238 -0.66307425 4.4629998
1.0771428 -0.65457141 4.3499999
0.22527522 -0.66307425 4.4629998
1.0854285 -0.65457141 4.3499999
0.23802666 -0.66307425 4.4629998
1.0937144 -0.65457141 4.3499999
0.24652763 -0.66307425 4.4629998
1.102 -0.65457141 4.3499999
0.25502858 -0.66307425 4.4629998
1.1144285 -0.65457141 4.3499999
1.126857 -0.65457141 4.3499999
-2.7125716 -1.6544763 5.0500002
-2.7029524 -1.6544763 5.0500002
-2.6933334 -1.6544763 5.0500002
-2.6837144 -1.6544763 5.0500002
-2.6740952 -1.6544763 5.0500002
0.34003806 -0.66307425 4.4629998
0.19302477 -0.28534096 4.4060001
0.20561334 -0.28534096 4.4060001
-2.2420666 -0.25913334 5.915
-2.2308002 -0.25913334 5.915
1.1865143 -0.27821714 4.296
0.32730284 -0.28534096 4.4060001
-2.2195332 -0.25913334 5.915
-2.2082665 -0.25913334 5.915
1.20288 -0.2741257 4.296
-2.197 -0.25913334 5.915
1.2151542 -0.27412573 4.296
0.35247999 -0.28534096 4.4060001
-2.1857333 -0.25913334 5.915
1.2274286 -0.2741257 4.296
0.36506858 -0.28534096 4.4060001
1.2356114 -0.2741257 4.296
0.37765715 -0.28534096 4.4060001
-2.1631999 -0.25913334 5.915
1.2437943 -0.2741257 4.296
0.38604954 -0.28534096 4.4060001
1.2519772 -0.2741257 4.296
0.3944419 -0.28534096 4.4060001
1.2642515 -0.27412573 4.296
0.4028343 -0.28534096 4.4060001
1.2765257 -0.2741257 4.296
1.2847085 -0.2741257 4.296
-2.1181333 -0.25913334 5.915
1.2928914 -0.2741257 4.296
1.3051658 -0.27412573 4.296
0.4447962 -0.28534096 4.4060001
-2.0955999 -0.25913334 5.915
1.31744 -0.2741257 4.296
0.4531886 -0.28534096 4.4060001
1.3256229 -0.2741257 4.296
1.3338057 -0.2741257 4.296
-2.0617998 -0.25913334 5.915
-2.0505333 -0.25913334 5.915
-2.0392666 -0.25913334 5.915
-2.0279999 -0.25913334 5.915
-2.0167334 -0.25913334 5.915
-2.0054667 -0.25913334 5.915
-0.59451425 -0.55488002 5.2020001
-0.58460569 -0.55488002 5.2020001
-0.57469714 -0.55488002 5.2020001
-0.56478858 -0.55488002 5.2020001
-0.55488002 -0.55488002 5.2020001
-0.54497147 -0.55488002 5.2020001
-0.52515429 -0.55488002 5.2020001
-0.51524568 -0.55488002 5.2020001
-0.50533712 -0.55488002 5.2020001
-0.48552001 -0.55488002 5.2020001
-0.47561145 -0.55488002 5.2020001
-0.46570286 -0.55488002 5.2020001
0.047400005 0.21804002 4.9770002
-0.4557943 -0.55488002 5.2020001
0.056880001 0.21804002 4.9770002
0.066360004 0.21804002 4.9770002
0.075840004 0.21804002 4.9770002
0.085320003 0.21804002 4.9770002
-0.41616002 -0.55488002 5.2020001
-0.40625146 -0.55488002 5.2020001
-0.4414165 0.15456127 2.0630002
-0.43421239 0.15521619 2.063
-0.42438859 0.1552162 2.063
-0.41456473 0.15521619 2.063
0.95210665 -0.66307425 4.4629998
-0.40474099 0.1552162 2.063
0.96485806 -0.66307425 4.4629998
-0.39491713 0.15521619 2.063
0.97760952 -0.66307425 4.4629998
-0.38771304 0.15587112 2.0630002
0.98611051 -0.66307425 4.4629998
0.99461132 -0.66307425 4.4629998
1.0031123 -0.66307425 4.4629998
1.0116132 -0.66307425 4.4629998
-2.3202798 -1.7211466 5.7189999
-2.3093865 -1.7211466 5.7189999
-2.2984934 -1.7211466 5.7189999
-2.2767067 -1.7211466 5.7189999
-2.2658134 -1.7211466 5.7189999
1.64496 -0.9752 3.8640001
-2.25492 -1.7211466 5.7189999
1.656 -0.9752 3.8640001
-2.2440267 -1.7211466 5.7189999
1.66336 -0.9752 3.8640001
-2.2331333 -1.7211466 5.7189999
1.6744 -0.9752 3.8640001
-2.22224 -1.7211466 5.7189999
1.6854401 -0.9752 3.8640001
-2.2113466 -1.7211466 5.7189999
1.6928 -0.9752 3.8640001
-2.200453 -1.7211466 5.7189999
1.70384 -0.97887999 3.8640001
1.71488 -0.9752 3.8640001
1.7246933 -0.97397339 3.8640001
1.7369599 -0.97152001 3.8640001
1.0238706 -0.28534096 4.4060001
1.0448514 -0.28534096 4.4060001
1.05744 -0.28534096 4.4060001
1.0658324 -0.28534096 4.4060001
-2.3897104 -1.1573485 5.6259999
1.0742248 -0.28534096 4.4060001
-2.3789942 -1.1573485 5.6259999
1.0826172 -0.28534096 4.4060001
-2.368278 -1.1573485 5.6259999
1.099402 -0.28534096 4.4060001
-2.3575618 -1.1573485 5.6259999
1.1077944 -0.28534096 4.4060001
-2.3468456 -1.1573485 5.6259999
1.1161867 -0.28534096 4.4060001
-2.314697 -1.1573485 5.6259999
1.1497562 -0.28534096 4.4060001
-2.3039808 -1.1573485 5.6259999
-2.2932646 -1.1573485 5.6259999
-2.2825487 -1.1573485 5.6259999
-2.2718325 -1.1573485 5.6259999
0.36291811 -1.3727771 4.1420002
-2.261116 -1.1573485 5.6259999
-2.2503998 -1.1573485 5.6259999
0.4260343 -1.3727771 4.1420002
0.43392384 -1.3727771 4.1420002
0.44181335 -1.3727771 4.1420002
0.4575924 -1.3727771 4.1420002
0.46548191 -1.3727771 4.1420002
0.036350474 -1.2540914 4.7709999
0.045438092 -1.2540914 4.7709999
0.50492954 -1.3727771 4.1420002
0.054525714 -1.2540914 4.7709999
-0.19348952 0.14511713 3.9070001
0.063613333 -1.2540914 4.7709999
-0.18604763 0.14511713 3.9070001
0.072700948 -1.2540914 4.7709999
-0.17488477 0.14511715 3.9070001
0.08178857 -1.2540914 4.7709999
-0.1637219 0.14883809 3.9070001
0.095419995 -1.2540914 4.7709999
0.10905143 -1.2540914 4.7709999
0.11813904 -1.2540914 4.7709999
0.12722667 -1.2540914 4.7709999
0.13631429 -1.2540914 4.7709999
-1.1140876 0.51187807 3.9519999
-1.1065599 0.51564187 3.9519999
-1.0965232 0.51689649 3.9520001
-1.0839771 0.51940566 3.9519999
-1.0764495 0.51940566 3.9519999
-1.065158 0.51940566 3.9519999
-1.0538666 0.51940566 3.9519999
-1.0388113 0.51940566 3.9519999
-1.0237561 0.51940566 3.9519999
-1.0162284 0.51564187 3.9519999
-0.14220001 -1.83912 4.9770002
-0.13272001 -1.83912 4.9770002
-1.37256 -1.7211466 5.7189999
-1.3616667 -1.7211466 5.7189999
-1.3507733 -1.7211466 5.7189999
-1.33988 -1.7211466 5.7189999
-1.3289865 -1.7211466 5.7189999
-0.61726475 0.51564187 3.9519999
-0.60597336 0.51564187 3.9519999
-0.59468186 0.51564187 3.9519999
-0.58715427 0.51564187 3.9519999
-0.57586282 0.51564187 3.9519999
-0.56457144 0.51564187 3.9519999
-0.55704379 0.51564187 3.9519999
-0.54575241 0.51564187 3.9519999
-0.5344609 0.51564187 3.9519999
-0.52693331 0.51564187 3.9519999
-0.51564187 0.51564187 3.9519999
-0.50435048 0.51564187 3.9519999
-0.49682286 0.51940566 3.9519999
-0.46671236 0.51940566 3.9519999
-0.44412953 0.51564187 3.9519999
-0.43660188 0.51564187 3.9519999
-0.42531046 0.51187807 3.9519999
-2.8114285 -0.72238094 5.125
-2.8016667 -0.72238094 5.125
-2.7919047 -0.72238094 5.125
1.3727771 -1.3727771 4.1420002
-2.7821429 -0.72238094 5.125
1.3806667 -1.3727771 4.1420002
-2.7723808 -0.72238094 5.125
1.3964458 -1.3727771 4.1420002
-2.762619 -0.72238094 5.125
-2.7528572 -0.72238094 5.125
-2.7430952 -0.72238094 5.125
-2.7333333 -0.72238094 5.125
-1.2002133 -1.1573485 5.6259999
1.4358934 -1.3727771 4.1420002
-2.7235713 -0.72238094 5.125
1.4437829 -1.3727771 4.1420002
-2.7138095 -0.72238094 5.125
1.4556172 -1.3727771 4.1420002
-2.7040477 -0.72238094 5.125
-1.1787809 -1.1573485 5.6259999
-2.6942856 -0.72238094 5.125
-1.1680647 -1.1573485 5.6259999
1.7103523 -0.036390476 3.8210001
-2.6845238 -0.72238094 5.125
-1.1573485 -1.1573485 5.6259999
-2.6747618 -0.72238094 5.125
-1.1466323 -1.1573485 5.6259999
-2.665 -0.72238094 5.125
-1.1359162 -1.1573485 5.6259999
-2.6552382 -0.72238094 5.125
-1.1251999 -1.1573485 5.6259999
-2.6454761 -0.72238094 5.125
-2.6357143 -0.72238094 5.125
-2.6259522 -0.72238094 5.125
-2.6161904 -0.72238094 5.125
-2.211657 0.42390093 4.8379998
-0.36552382 -1.6544763 5.0500002
-2.2024419 0.42390093 4.8379998
-0.35590476 -1.6544763 5.0500002
-0.10538667 0.51564187 3.9519999
-2.1932266 0.42390093 4.8379998
-0.34628573 -1.6544763 5.0500002
-0.095349841 0.51438731 3.9520001
-0.082803808 0.51187807 3.9519999
-0.31742859 -1.6544763 5.0500002
-0.30780953 -1.6544763 5.0500002
-1.1374171 -0.26185143 4.296
-1.1251428 -0.26185143 4.296
-1.1128685 -0.26185143 4.296
-1.1046858 -0.26185143 4.296
-1.0965029 -0.26185143 4.296
-1.0883199 -0.26185143 4.296
1.6220456 -0.42645332 3.9979999
0.49591643 0.016175475 1.6569998
0.50499052 0.01578095 1.6569998
0.51235497 0.017885078 1.6569999
-2.2152381 -0.98578101 5.8150001
-2.2041619 -0.98578101 5.8150001
-2.1930857 -0.98578101 5.8150001
-2.1820097 -0.98578101 5.8150001
-2.1709332 -0.98578101 5.8150001
1.6148933 0.14883809 3.9070001
1.3254704 -1.00608 4.1919999
1.3334552 -1.00608 4.1919999
1.6669867 0.14511713 3.9070001
-2.6816342 -1.6218818 4.8379998
1.34144 -1.00608 4.1919999
-2.6724188 -1.6218818 4.8379998
-0.046723809 -0.70085716 4.9060001
-2.6632037 -1.6218818 4.8379998
-0.037379049 -0.70085716 4.9060001
-2.6539886 -1.6218818 4.8379998
-0.028034287 -0.70085716 4.9060001
-2.6447732 -1.6218818 4.8379998
-2.6355579 -1.6218818 4.8379998
-2.6263428 -1.6218818 4.8379998
1.405318 -1.00608 4.1919999
1.5951904 -0.55599999 3.4749999
1.4133029 -1.00608 4.1919999
1.605119 -0.55599999 3.4749999
1.4292723 -1.00608 4.1919999
1.6150476 -0.55599999 3.4749999
1.4372572 -1.00608 4.1919999
1.6216667 -0.55599999 3.4749999
1.4452419 -1.00608 4.1919999
1.4532266 -1.00608 4.1919999
1.4612114 -1.00608 4.1919999
0.5172419 -0.63442951 4.243
0.52532381 -0.63442951 4.243
0.53340572 -0.63442951 4.243
0.54418159 -0.63577652 4.243
0.5576514 -0.63847047 4.243
0.57381523 -0.63847047 4.243
0.58189714 -0.63847047 4.243
-1.2001106 -0.2769486 4.4060001
-1.1917181 -0.2769486 4.4060001
-1.5838952 -0.98578101 5.8150001
-1.572819 -0.98578101 5.8150001
-1.5617428 -0.98578101 5.8150001
-1.5506667 -0.98578101 5.8150001
-1.5395905 -0.98578101 5.8150001
-1.5285144 -0.98578101 5.8150001
-1.5174382 -0.98578101 5.8150001
-1.506362 -0.98578101 5.8150001
-1.4952857 -0.98578101 5.8150001
-1.4842095 -0.98578101 5.8150001
-1.4731333 -0.98578101 5.8150001
-1.4620571 -0.98578101 5.8150001
-1.450981 -0.98578101 5.8150001
-1.4399048 -0.98578101 5.8150001
-1.4288286 -0.98578101 5.8150001
-1.4177524 -0.98578101 5.8150001
-1.4066762 -0.98578101 5.8150001
-1.3956 -0.98578101 5.8150001
1.5948857 -0.053933334 4.0450001
1.6025904 -0.053933334 4.0450001
1.6141477 -0.053933334 4.0450001
1.6257048 -0.053933334 4.0450001
0.13745676 0.068264 1.219
1.6334096 -0.053933334 4.0450001
0.14551964 0.065326162 1.2172353
1.6411144 -0.053933334 4.0450001
0.15432747 0.064863041 1.2142274
0.16450363 0.0660735 1.2184117
0.17274971 0.067335241 1.219
-2.6638801 -1.82964 4.9770002
0.1973619 0.069657139 1.219
-2.6544001 -1.8249 4.9770002
0.20618513 0.06919276 1.219
-2.6449199 -1.8249 4.9770002
0.21477619 0.069657139 1.219
-2.6354401 -1.8249 4.9770002
0.22174191 0.069657139 1.219
0.098194286 -0.26185143 4.296
-2.6259601 -1.8249 4.9770002
0.10637714 -0.26185143 4.296
0.11456 -0.26185143 4.296
0.12274286 -0.26185143 4.296
0.35628572 -0.64628571 4.3499999
0.36457142 -0.64628571 4.3499999
1.2257557 -0.63577652 4.243
0.37285715 -0.64628571 4.3499999
1.2365315 -0.63847047 4.243
0.38528568 -0.64628571 4.3499999
1.2446133 -0.63442951 4.243
0.39771426 -0.64628571 4.3499999
1.2526952 -0.63442951 4.243
0.40599999 -0.64628571 4.3499999
1.2648181 -0.63442951 4.243
0.41428572 -0.64628571 4.3499999
1.2769409 -0.63442951 4.243
1.2850229 -0.63442951 4.243
1.2931048 -0.63442951 4.243
1.3052276 -0.63442951 4.243
1.3173505 -0.63442951 4.243
1.3254323 -0.63442951 4.243
1.3335143 -0.63442951 4.243
1.3456371 -0.63442951 4.243
1.35776 -0.63442951 4.243
1.3658419 -0.63442951 4.243
1.3739238 -0.63442951 4.243
1.3820057 -0.63442951 4.243
1.3900876 -0.63442951 4.243
1.4062514 -0.63442951 4.243
1.4143333 -0.63442951 4.243
1.4224153 -0.63847047 4.243
1.4304971 -0.63442951 4.243
-0.59392667 0.17621998 1.9579999
-0.58606803 0.17635319 1.9580002
-0.57487947 0.17422204 1.9580002
0.82857144 -0.64628571 4.3499999
-0.3904762 -0.72238094 5.125
0.83685708 -0.64628571 4.3499999
-0.38071427 -0.72238094 5.125
0.84514284 -0.64628571 4.3499999
-2.1113219 -1.5747428 6.1240001
-0.37095237 -0.72238094 5.125
0.85342854 -0.64628571 4.3499999
-0.36119047 -0.72238094 5.125
0.86171424 -0.64628571 4.3499999
-2.0996573 -1.5747428 6.1240001
-0.35142857 -0.72238094 5.125
0.87414283 -0.64628571 4.3499999
-2.0879924 -1.5747428 6.1240001
-0.34166667 -0.72238094 5.125
-2.0763276 -1.5747428 6.1240001
-0.33190477 -0.72238094 5.125
-2.0646629 -1.5747428 6.1240001
-0.32214284 -0.72238094 5.125
-2.0529981 -1.5747428 6.1240001
-0.31238094 -0.72238094 5.125
-2.0413334 -1.5747428 6.1240001
-0.29285714 -0.72238094 5.125
-2.0296686 -1.5747428 6.1240001
-0.28309524 -0.72238094 5.125
-2.0180039 -1.5747428 6.1240001
1.0357143 -0.64628571 4.3499999
1.0439999 -0.64628571 4.3499999
1.0522857 -0.64628571 4.3499999
1.0647142 -0.64628571 4.3499999
0.2125238 -0.65457332 4.4629998
1.0771428 -0.64628571 4.3499999
0.22527522 -0.65457332 4.4629998
1.0854285 -0.64628571 4.3499999
0.23802666 -0.65457332 4.4629998
1.0937144 -0.64628571 4.3499999
0.24652763 -0.65457332 4.4629998
1.102 -0.64628571 4.3499999
0.25502858 -0.65457332 4.4629998
1.1144285 -0.64628571 4.3499999
1.126857 -0.64628571 4.3499999
-2.7125716 -1.6448572 5.0500002
-2.7029524 -1.6448572 5.0500002
-2.6933334 -1.6448572 5.0500002
-2.6837144 -1.6448572 5.0500002
-2.6740952 -1.6448572 5.0500002
0.19302477 -0.2769486 4.4060001
0.20141715 -0.2769486 4.4060001
-2.2420666 -0.24786668 5.915
-2.2308002 -0.24786668 5.915
-2.2195332 -0.24786668 5.915
-2.2082665 -0.24786668 5.915
0.34408763 -0.2769486 4.4060001
-2.197 -0.24786668 5.915
1.2192457 -0.26185143 4.296
0.35247999 -0.2769486 4.4060001
-2.1857333 -0.24786668 5.915
1.2274286 -0.26185143 4.296
0.36506858 -0.2769486 4.4060001
1.2356114 -0.26185143 4.296
0.37765715 -0.2769486 4.4060001
-2.1631999 -0.24786668 5.915
1.2437943 -0.26185143 4.296
0.38604954 -0.2769486 4.4060001
-2.1519334 -0.24786668 5.915
1.2519772 -0.26185143 4.296
1.2642515 -0.26185143 4.296
1.2765257 -0.26185143 4.296
1.2847085 -0.26185143 4.296
-2.1181333 -0.24786668 5.915
1.2928914 -0.26185143 4.296
1.3051658 -0.26185143 4.296
0.4447962 -0.2769486 4.4060001
-2.0955999 -0.24786668 5.915
1.31744 -0.26185143 4.296
1.3256229 -0.26185143 4.296
1.3338057 -0.26185143 4.296
-2.0617998 -0.24786668 5.915
-2.0505333 -0.24786668 5.915
-2.0392666 -0.24786668 5.915
-2.0279999 -0.24786668 5.915
-2.0167334 -0.24786668 5.915
-0.60442287 -0.54497147 5.2020001
-2.0054667 -0.24786668 5.915
-0.59451425 -0.54497147 5.2020001
-0.58460569 -0.54497147 5.2020001
-0.57469714 -0.54497147 5.2020001
-0.56478858 -0.54497147 5.2020001
-0.55488002 -0.54497147 5.2020001
-0.54497147 -0.54497147 5.2020001
-0.52515429 -0.54497147 5.2020001
-0.51524568 -0.54497147 5.2020001
-0.50533712 -0.54497147 5.2020001
-0.49542859 -0.54497147 5.2020001
-0.48552001 -0.54497147 5.2020001
-0.47561145 -0.54497147 5.2020001
-0.46570286 -0.54497147 5.2020001
0.047400005 0.22752 4.9770002
-0.4557943 -0.54497147 5.2020001
0.056880001 0.22752 4.9770002
0.066360004 0.22752 4.9770002
-0.43597713 -0.54497147 5.2020001
0.075840004 0.22752 4.9770002
-0.42606857 -0.54497147 5.2020001
-0.41616002 -0.54497147 5.2020001
-0.40625146 -0.54497147 5.2020001
0.9181028 -0.65457332 4.4629998
-0.44010669 0.16504 2.0630002
-0.39634284 -0.54497147 5.2020001
-0.43421239 0.16504 2.063
-0.42438856 0.16504 2.063
0.94360566 -0.65457332 4.4629998
-0.41456473 0.16504 2.063
0.95210665 -0.65457332 4.4629998
-0.40474096 0.16504 2.063
0.96485806 -0.65457332 4.4629998
-0.39491713 0.16504 2.063
0.97760952 -0.65457332 4.4629998
-0.3855845 0.16553119 2.063
0.98611051 -0.65457332 4.4629998
-0.3752695 0.16700475 2.063
0.99461132 -0.65457332 4.4629998
-0.36623162 0.16661181 2.063
1.0031123 -0.65457332 4.4629998
-0.35562187 0.16503999 2.063
-0.3497276 0.16700476 2.063
-2.3202798 -1.7102534 5.7189999
-2.3093865 -1.7102534 5.7189999
-2.2984934 -1.7102534 5.7189999
-2.2876 -1.7102534 5.7189999
-2.2767067 -1.7102534 5.7189999
-2.2658134 -1.7102534 5.7189999
1.6449599 -0.96416003 3.8640001
-2.25492 -1.7102534 5.7189999
1.656 -0.96416003 3.8640001
-2.2440267 -1.7102534 5.7189999
1.66336 -0.96416003 3.8640001
-2.2331333 -1.7102534 5.7189999
1.67072 -0.96416003 3.8640001
-2.22224 -1.7102534 5.7189999
-0.22005333 0.16700476 2.063
-2.2113466 -1.7102534 5.7189999
-0.2161238 0.16503999 2.063
-2.200453 -1.7102534 5.7189999
-2.1895599 -1.7102534 5.7189999
1.72592 -0.96416003 3.8640001
1.7369599 -0.96416003 3.8640001
1.0448514 -0.2769486 4.4060001
1.05744 -0.2769486 4.4060001
1.0658324 -0.2769486 4.4060001
-2.3897104 -1.1466323 5.6259999
1.0742248 -0.2769486 4.4060001
1.0826172 -0.2769486 4.4060001
-2.368278 -1.1466323 5.6259999
1.099402 -0.2769486 4.4060001
1.1077944 -0.2769486 4.4060001
1.1161867 -0.2769486 4.4060001
1.1245791 -0.2769486 4.4060001
-2.3254135 -1.1466323 5.6259999
1.1329714 -0.2769486 4.4060001
-2.314697 -1.1466323 5.6259999
1.14556 -0.2769486 4.4060001
-2.3039808 -1.1466323 5.6259999
-2.2932646 -1.1466323 5.6259999
-2.2825487 -1.1466323 5.6259999
0.3550286 -1.3648877 4.1420002
-2.2718325 -1.1466323 5.6259999
0.36291811 -1.3648877 4.1420002
-2.261116 -1.1466323 5.6259999
-2.2503998 -1.1466323 5.6259999
0.43392384 -1.3648877 4.1420002
-2.4459429 -0.57985711 5.5349998
-2.4354 -0.57985711 5.5349998
-2.4248569 -0.57985711 5.5349998
0.036350474 -1.2450038 4.7709999
0.045438092 -1.2450038 4.7709999
0.054525714 -1.2450038 4.7709999
-0.19348952 0.15628001 3.9070001
0.063613333 -1.2450038 4.7709999
-0.18604763 0.15628001 3.9070001
-2.3721428 -0.57985711 5.5349998
0.072700948 -1.2450038 4.7709999
-0.17488477 0.15628001 3.9070001
-2.3615999 -0.57985711 5.5349998
0.08178857 -1.2450038 4.7709999
-0.1637219 0.15628001 3.9070001
-2.3510571 -0.57985711 5.5349998
0.095419995 -1.2450038 4.7709999
-2.3405142 -0.57985711 5.5349998
0.10905143 -1.2450038 4.7709999
0.11813904 -1.2450038 4.7709999
-2.3299713 -0.57985711 5.5349998
0.12722667 -1.2450038 4.7709999
0.13631429 -1.2450038 4.7709999
-1.7429333 -1.7102534 5.7189999
0.16357714 -1.2450038 4.7709999
-1.7320399 -1.7102534 5.7189999
-1.7211466 -1.7102534 5.7189999
-1.1065599 0.52693331 3.9519999
-1.0952685 0.52693331 3.9519999
-1.0839771 0.52693331 3.9519999
-1.0764495 0.52693331 3.9519999
-1.0613942 0.52693331 3.9519999
-1.046339 0.52693331 3.9519999
-1.0388113 0.52693331 3.9519999
-1.0237561 0.52693331 3.9519999
-1.0162284 0.52693331 3.9519999
-1.5032799 -1.7102534 5.7189999
-0.17064001 -1.8249 4.9770002
-0.16116001 -1.8249 4.9770002
-0.15168001 -1.8249 4.9770002
-0.14220001 -1.8249 4.9770002
-0.13272001 -1.8249 4.9770002
-0.12324001 -1.8249 4.9770002
-0.11376 -1.8249 4.9770002
-1.3943466 -1.7102534 5.7189999
-1.3834532 -1.7102534 5.7189999
-1.37256 -1.7102534 5.7189999
-1.3616667 -1.7102534 5.7189999
-1.3507733 -1.7102534 5.7189999
-1.33988 -1.7102534 5.7189999
-1.3289865 -1.7102534 5.7189999
-1.3180933 -1.7102534 5.7189999
-0.60220951 0.52693331 3.9519999
-0.59468186 0.52693331 3.9519999
-0.58715427 0.52693331 3.9519999
-0.57586282 0.52693331 3.9519999
-0.56457144 0.52693331 3.9519999
-0.54575241 0.52693331 3.9519999
-0.5344609 0.52693331 3.9519999
-0.52693331 0.52693331 3.9519999
-0.51564187 0.52693331 3.9519999
-0.50435048 0.52693331 3.9519999
-0.49682286 0.52693331 3.9519999
-0.48553142 0.52693331 3.9519999
-0.47424001 0.52693331 3.9519999
-0.46671236 0.52693331 3.9519999
-0.45165712 0.52693331 3.9519999
-0.44412953 0.52693331 3.9519999
-0.43660188 0.52693331 3.9519999
-0.42907426 0.52693331 3.9519999
-2.8016667 -0.71261907 5.125
-2.7919047 -0.71261907 5.125
1.3727771 -1.3648877 4.1420002
-2.7821429 -0.71261907 5.125
1.3846115 -1.3648877 4.1420002
-2.7723808 -0.71261907 5.125
1.3964458 -1.3648877 4.1420002
1.4043354 -1.3648877 4.1420002
-2.7528572 -0.71261907 5.125
1.4122248 -1.3648877 4.1420002
-2.7430952 -0.71261907 5.125
1.4201144 -1.3648877 4.1420002
-2.7333333 -0.71261907 5.125
1.4358934 -1.3648877 4.1420002
-2.7235713 -0.71261907 5.125
-2.7138095 -0.71261907 5.125
1.4516724 -1.3648877 4.1420002
-2.7040477 -0.71261907 5.125
-1.1787809 -1.1466323 5.6259999
-2.6942856 -0.71261907 5.125
-1.1680647 -1.1466323 5.6259999
-2.6845238 -0.71261907 5.125
-1.1573485 -1.1466323 5.6259999
-2.6747618 -0.71261907 5.125
-1.1466323 -1.1466323 5.6259999
-2.665 -0.71261907 5.125
-1.1359162 -1.1466323 5.6259999
-2.6552382 -0.71261907 5.125
-2.6454761 -0.71261907 5.125
-2.6357143 -0.71261907 5.125
-2.6259522 -0.71261907 5.125
-2.6161904 -0.71261907 5.125
-2.2300875 0.43311617 4.8379998
-2.2208724 0.43311617 4.8379998
-2.211657 0.43311617 4.8379998
-2.2024419 0.43311617 4.8379998
-0.35590476 -1.6448572 5.0500002
-2.1932266 0.43311617 4.8379998
-0.34628573 -1.6448572 5.0500002
-2.1840112 0.43311617 4.8379998
-0.31742859 -1.6448572 5.0500002
-2.1379352 0.43311617 4.8379998
-2.1102896 0.43311617 4.8379998
-2.1010742 0.43311617 4.8379998
-1.1374171 -0.25366855 4.296
-1.1251428 -0.25366855 4.296
-1.1128685 -0.25366855 4.296
-1.1046858 -0.25366855 4.296
1.6296608 -0.41883808 3.9979999
1.6372762 -0.41122285 3.9979999
0.4892095 0.025249524 1.6569999
0.49552187 0.025249522 1.6569998
0.50499052 0.025249522 1.6569998
0.51256531 0.025249524 1.6569999
-2.1930857 -0.97470474 5.8150001
-2.1820097 -0.97470474 5.8150001
1.6223352 0.15628001 3.9070001
-2.6816342 -1.6126666 4.8379998
1.34144 -0.99011046 4.1919999
-2.6724188 -1.6126666 4.8379998
-2.6632037 -1.6126666 4.8379998
-0.037379049 -0.69151241 4.9060001
-2.6539886 -1.6126666 4.8379998
-2.6447732 -1.6126666 4.8379998
1.3840253 -0.99277204 4.1920004
1.3973333 -0.99410284 4.1919999
1.5885714 -0.5493809 3.4749999
1.405318 -0.99410284 4.1919999
1.4133029 -0.99410284 4.1919999
1.6084285 -0.54276186 3.4749999
1.4252799 -0.99410284 4.1919999
1.6150476 -0.54607141 3.4749999
0.028034287 -0.69151241 4.9060001
1.4372572 -0.99410284 4.1919999
1.6249762 -0.54607135 3.4749999
1.4452419 -0.99410284 4.1919999
1.6349046 -0.5493809 3.4749999
1.4532266 -0.99809521 4.1919999
1.5091199 -0.99011046 4.1919999
1.5171047 -0.99011046 4.1919999
0.5172419 -0.62230664 4.243
0.52532381 -0.62230664 4.243
-1.23368 -0.26016381 4.4060001
-1.2252876 -0.26016381 4.4060001
-1.2168952 -0.26436001 4.4060001
-1.2057054 -0.26575875 4.4060001
-1.6171237 -0.97470474 5.8150001
-1.5949714 -0.97470474 5.8150001
-1.5838952 -0.97470474 5.8150001
-1.572819 -0.97470474 5.8150001
-1.5617428 -0.97470474 5.8150001
-1.5506667 -0.97470474 5.8150001
-1.5395905 -0.97470474 5.8150001
-1.5285144 -0.97470474 5.8150001
-1.5174382 -0.97470474 5.8150001
-1.506362 -0.97470474 5.8150001
-1.4952857 -0.97470474 5.8150001
-1.4842095 -0.97470474 5.8150001
-1.4731333 -0.97470474 5.8150001
-1.4620571 -0.97470474 5.8150001
-1.450981 -0.97470474 5.8150001
-1.4399048 -0.97470474 5.8150001
-1.4288286 -0.97470474 5.8150001
-1.4177524 -0.97470474 5.8150001
-1.4066762 -0.97470474 5.8150001
-1.3956 -0.97470474 5.8150001
-1.9601486 -1.5589485 6.0180001
1.5948857 -0.046228573 4.0450001
1.6025904 -0.046228573 4.0450001
-1.9486856 -1.5589485 6.0180001
1.6141477 -0.046228573 4.0450001
-1.9372228 -1.5589485 6.0180001
1.6257048 -0.046228573 4.0450001
-1.92576 -1.5589485 6.0180001
0.13595647 0.076268017 1.2186428
1.6334096 -0.046228573 4.0450001
-1.9142972 -1.5589485 6.0180001
0.14466962 0.075227961 1.21525
1.6411144 -0.046228573 4.0450001
-1.9028343 -1.5589485 6.0180001
0.1549295 0.075152367 1.2140001
-1.8913715 -1.5589485 6.0180001
0.16584951 0.075384527 1.21775
0.17414287 0.075356357 1.219
-1.8799086 -1.5589485 6.0180001
0.19852285 0.075461894 1.219
0.20522192 0.075363085 1.2174375
-2.6449199 -1.81068 4.9770002
0.21522664 0.075211897 1.2150002
0.26514286 -0.63799995 4.3499999
-2.6354401 -1.81068 4.9770002
0.22468121 0.075665973 1.2171818
-2.6259601 -1.81068 4.9770002
0.10637714 -0.25366855 4.296
-2.6164801 -1.81068 4.9770002
0.11456 -0.25366855 4.296
0.12274286 -0.25366855 4.296
0.13910857 -0.25366855 4.296
0.34799999 -0.63799995 4.3499999
0.35628572 -0.63799995 4.3499999
0.36457142 -0.63799995 4.3499999
0.37285715 -0.63799995 4.3499999
0.38528568 -0.63799995 4.3499999
1.2526952 -0.62230664 4.243
0.39771426 -0.63799995 4.3499999
1.2648181 -0.62230664 4.243
0.40599999 -0.63799995 4.3499999
1.2769409 -0.62230664 4.243
0.41428572 -0.63799995 4.3499999
1.2850229 -0.62230664 4.243
0.42257142 -0.63799995 4.3499999
1.2931048 -0.62230664 4.243
0.43499997 -0.63799995 4.3499999
1.3052276 -0.62230664 4.243
1.3173505 -0.62230664 4.243
1.3254323 -0.62230664 4.243
1.3335143 -0.62230664 4.243
1.3456371 -0.62230664 4.243
1.35776 -0.62230664 4.243
1.3658419 -0.62230664 4.243
1.3739238 -0.62230664 4.243
1.3820057 -0.62230664 4.243
1.3900876 -0.62230664 4.243
1.4062514 -0.62230664 4.243
1.4143333 -0.62230664 4.243
-0.46857142 -0.71261907 5.125
-0.58478934 0.18498437 1.9580001
-0.57807618 0.18461141 1.9579999
-0.4392857 -0.71261907 5.125
-0.4295238 -0.71261907 5.125
0.82857144 -0.63799995 4.3499999
-2.1346514 -1.5630782 6.1240001
-2.1229866 -1.5630782 6.1240001
-0.38071427 -0.71261907 5.125
0.84514284 -0.63799995 4.3499999
-2.1113219 -1.5630782 6.1240001
-0.37095237 -0.71261907 5.125
0.85342854 -0.63799995 4.3499999
-0.36119047 -0.71261907 5.125
0.86171424 -0.63799995 4.3499999
-2.0996573 -1.5630782 6.1240001
-0.35142857 -0.71261907 5.125
0.87 -0.63799995 4.3499999
-2.0879924 -1.5630782 6.1240001
-0.34166667 -0.71261907 5.125
-2.0763276 -1.5630782 6.1240001
-0.33190477 -0.71261907 5.125
-2.0646629 -1.5630782 6.1240001
-0.32214284 -0.71261907 5.125
-2.0529981 -1.5630782 6.1240001
-0.31238094 -0.71261907 5.125
-2.0413334 -1.5630782 6.1240001
-0.29285714 -0.71261907 5.125
-2.0296686 -1.5630782 6.1240001
-0.28309524 -0.71261907 5.125
-2.0180039 -1.5630782 6.1240001
-2.0063391 -1.5630782 6.1240001
-1.9830095 -1.5630782 6.1240001
-1.9713448 -1.5630782 6.1240001
1.0274285 -0.63799995 4.3499999
1.0357143 -0.63799995 4.3499999
1.0439999 -0.63799995 4.3499999
1.0522857 -0.63799995 4.3499999
1.0647142 -0.63799995 4.3499999
1.0771428 -0.63799995 4.3499999
1.0854285 -0.63799995 4.3499999
0.23802666 -0.64607233 4.4629998
0.24652763 -0.64607233 4.4629998
1.1144285 -0.63799995 4.3499999
1.126857 -0.63799995 4.3499999
1.1351429 -0.63799995 4.3499999
-2.7125716 -1.6352382 5.0500002
-2.7029524 -1.6352382 5.0500002
-2.6933334 -1.6352382 5.0500002
-2.6837144 -1.6352382 5.0500002
-2.6740952 -1.6352382 5.0500002
0.18463239 -0.26016381 4.4060001
0.19302477 -0.26436001 4.4060001
0.20421462 -0.26296127 4.4060001
0.21820191 -0.26016381 4.4060001
0.2265943 -0.26016381 4.4060001
-2.2420666 -0.2366 5.915
-2.2308002 -0.2366 5.915
0.31471428 -0.26436001 4.4060001
0.32730284 -0.26436001 4.4060001
-2.2195332 -0.2366 5.915
0.33569524 -0.26436001 4.4060001
-2.2082665 -0.2366 5.915
0.34408763 -0.26436001 4.4060001
-2.197 -0.2366 5.915
1.2192457 -0.25366855 4.296
0.35247999 -0.26436001 4.4060001
-2.1857333 -0.2366 5.915
