# .PCD v0.7 - Point Cloud Data file format
VERSION 0.7
FIELDS x y z
SIZE 4 4 4
TYPE F F F
COUNT 1 1 1
WIDTH 1483
HEIGHT 1
VIEWPOINT 0 0 0 1 0 0 0
POINTS 1483
DATA ascii
-1.8736533 -1.4597067 5.7189999
-1.8627599 -1.4597067 5.7189999
-1.8518666 -1.4597067 5.7189999
-1.8409733 -1.4597067 5.7189999
-1.8300799 -1.4597067 5.7189999
-1.8191867 -1.4597067 5.7189999
-1.8082933 -1.4597067 5.7189999
-1.4005257 0.47834855 2.589
-1.7973999 -1.4597067 5.7189999
-1.7865065 -1.4597067 5.7189999
-1.7756132 -1.4597067 5.7189999
-1.76472 -1.4597067 5.7189999
-1.7538266 -1.4597067 5.7189999
-1.7429333 -1.4597067 5.7189999
-1.7320399 -1.4597067 5.7189999
-1.7102534 -1.4597067 5.7189999
-1.69936 -1.4597067 5.7189999
-1.6884667 -1.4597067 5.7189999
-1.6775732 -1.4597067 5.7189999
-1.6666799 -1.4597067 5.7189999
0.12945904 0.52545142 3.9979999
0.13707428 0.52545142 3.9979999
-2.3085713 -1.1446667 5.0500002
-2.2989526 -1.1446667 5.0500002
-2.2893333 -1.1446667 5.0500002
-2.2700953 -1.1446667 5.0500002
-2.2604761 -1.1446667 5.0500002
-2.2508574 -1.1446667 5.0500002
-2.2412381 -1.1446667 5.0500002
2.0539658 -0.14139619 3.9070001
-2.2316191 -1.1446667 5.0500002
2.0651286 -0.14511713 3.9070001
2.0762913 -0.14511713 3.9070001
-1.6725048 0.15506667 5.8150001
-1.6614286 0.15506667 5.8150001
-1.6503524 0.15506667 5.8150001
-1.5617428 0.15506667 5.8150001
-1.5395905 0.15506667 5.8150001
-1.5285144 0.15506667 5.8150001
-1.450981 0.15506667 5.8150001
1.8145906 -0.96252197 4.1420002
-1.4399048 0.15506667 5.8150001
-1.4288286 0.15506667 5.8150001
1.8343143 -0.96252197 4.1420002
-1.4177524 0.15506667 5.8150001
-1.4066762 0.15506667 5.8150001
0.15908572 0.23465143 2.0880001
0.16465372 0.23385601 2.0880001
0.17101716 0.23266286 2.0880001
-0.21786666 -1.4597067 5.7189999
-0.20697333 -1.4597067 5.7189999
-0.19608 -1.4597067 5.7189999
-0.18518667 -1.4597067 5.7189999
-0.17429332 -1.4597067 5.7189999
-0.16339999 -1.4597067 5.7189999
-0.15250665 -1.4597067 5.7189999
-0.14161333 -1.4597067 5.7189999
-0.13071999 -1.4597067 5.7189999
-0.11982666 -1.4597067 5.7189999
-0.10893333 -1.4597067 5.7189999
-0.09804 -1.4597067 5.7189999
-0.087146662 -1.4597067 5.7189999
-0.076253325 -1.4597067 5.7189999
-0.065359995 -1.4597067 5.7189999
-0.054466665 -1.4597067 5.7189999
-0.043573331 -1.4597067 5.7189999
-0.032679997 -1.4597067 5.7189999
-2.5912364 -0.71634859 4.6430001
-2.5823922 -0.71634859 4.6430001
-2.5735486 -0.71634859 4.6430001
0.63516003 -0.87216008 4.9770002
0.64464003 -0.87216008 4.9770002
0.65412003 -0.87216008 4.9770002
0.66360003 -0.87216008 4.9770002
0.67308003 -0.87216008 4.9770002
0.68256003 -0.87216008 4.9770002
0.69204003 -0.87216008 4.9770002
0.70152003 -0.87216008 4.9770002
0.71100003 -0.87216008 4.9770002
0.72048002 -0.87216008 4.9770002
0.73944002 -0.87216008 4.9770002
0.75840008 -0.87216008 4.9770002
-0.047908571 -0.15969522 4.1919999
-0.015969524 -0.15969522 4.1919999
-0.0079847621 -0.15969522 4.1919999
0 -0.15969522 4.1919999
-0.04127619 -0.033020955 2.1670001
-0.035084762 -0.033020955 2.1670001
-0.024765715 -0.033020955 2.1670003
-0.015134606 -0.035772704 2.1670003
-0.0061914288 -0.037148573 2.1670001
-1.3526171 -0.52729142 6.0180001
-1.1849809 0.63377714 2.2520001
-1.1764019 0.63592196 2.2520001
-1.3296914 -0.52729142 6.0180001
-1.1667504 0.63484955 2.2520001
-1.3182286 -0.52729142 6.0180001
-1.3067657 -0.52729142 6.0180001
-1.2953029 -0.52729142 6.0180001
-1.2838399 -0.52729142 6.0180001
-1.2723771 -0.52729142 6.0180001
-1.2494515 -0.52729142 6.0180001
-1.2265258 -0.52729142 6.0180001
-1.2150629 -0.52729142 6.0180001
0.43285716 -1.1446667 5.0500002
0.44247618 -1.1446667 5.0500002
0.45209524 -1.1446667 5.0500002
0.4617143 -1.1446667 5.0500002
0.47133335 -1.1446667 5.0500002
0.48095241 -1.1446667 5.0500002
0.49057147 -1.1446667 5.0500002
0.505 -1.1446667 5.0500002
0.51942861 -1.1446667 5.0500002
0.52904761 -1.1446667 5.0500002
0.53866673 -1.1446667 5.0500002
0.54828572 -1.1446667 5.0500002
0.70281649 0.13447747 1.546
-0.42195997 -0.30140001 4.5209999
-0.41334856 -0.30140001 4.5209999
-0.40473714 -0.30140001 4.5209999
-0.3961257 -0.30140001 4.5209999
-0.38751426 -0.30140001 4.5209999
-0.37459713 -0.30140001 4.5209999
-0.36167997 -0.30140001 4.5209999
-2.4363601 -0.86268002 4.9770002
-0.88264 -0.52729142 6.0180001
-0.87117714 -0.52729142 6.0180001
-2.4173999 -0.86268002 4.9770002
-2.4079201 -0.86268002 4.9770002
-2.3984401 -0.86268002 4.9770002
-0.83678854 -0.52729142 6.0180001
-2.3794801 -0.86268002 4.9770002
-0.82532573 -0.52729142 6.0180001
-0.81386286 -0.52729142 6.0180001
-2.3320801 -0.86268002 4.9770002
0.23442 -0.13395429 3.9070001
0.24558285 -0.13395429 3.9070001
0.25302476 -0.13395429 3.9070001
0.26790857 -0.13395429 3.9070001
-0.6189943 -0.52729142 6.0180001
-0.60753143 -0.52729142 6.0180001
-0.49290287 -0.52729142 6.0180001
-1.2947886 -1.8780266 6.1240001
-0.48144001 -0.52729142 6.0180001
-1.2831239 -1.8780266 6.1240001
0.4055838 -0.13395429 3.9070001
-1.271459 -1.8780266 6.1240001
0.41674668 -0.13395429 3.9070001
-0.46997714 -0.52729142 6.0180001
-0.45851427 -0.52729142 6.0180001
-1.2597944 -1.8780266 6.1240001
-0.44705144 -0.52729142 6.0180001
-1.2481295 -1.8780266 6.1240001
-1.2364647 -1.8780266 6.1240001
-1.2248 -1.8780266 6.1240001
-1.2014705 -1.8780266 6.1240001
-0.11506057 0.10452687 2.1270001
-0.10776799 0.10614743 2.1270001
-0.083729528 0.10601239 2.1270001
-0.075356573 0.10614743 2.1270001
-0.064316429 0.10584358 2.1270001
-0.055099428 0.10452687 2.1270001
0.25851464 0.15395771 1.2589999
-0.044565719 0.10533716 2.1270001
0.26035425 0.15048 1.2539999
-0.036462858 0.10533714 2.1270001
-0.020257143 0.10938857 2.1270001
-0.013774859 0.10614743 2.1270001
-0.0060771434 0.10533716 2.1270001
0.014180001 0.10128572 2.1270001
0.020257143 0.10128572 2.1270001
0.03241143 0.10128572 2.1270001
-1.8736533 -1.4488132 5.7189999
-1.8627599 -1.4488132 5.7189999
-1.8518666 -1.4488132 5.7189999
-1.8409733 -1.4488132 5.7189999
-1.8300799 -1.4488132 5.7189999
-1.8191867 -1.4488132 5.7189999
-1.8082933 -1.4488132 5.7189999
-1.4054571 0.48328 2.589
-1.7973999 -1.4488132 5.7189999
-1.7865065 -1.4488132 5.7189999
-1.7756132 -1.4488132 5.7189999
-1.76472 -1.4488132 5.7189999
-1.7429333 -1.4488132 5.7189999
-1.7320399 -1.4488132 5.7189999
-1.6884667 -1.4488132 5.7189999
-1.6775732 -1.4488132 5.7189999
-1.6666799 -1.4488132 5.7189999
0.12945904 0.53306663 3.9979999
0.13707428 0.53306663 3.9979999
0.14468952 0.53306663 3.9979999
0.15991999 0.53306663 3.9979999
0.32384002 0.0036800001 3.8640001
-2.3085713 -1.1350477 5.0500002
-2.2989526 -1.1350477 5.0500002
-2.2893333 -1.1350477 5.0500002
-2.2700953 -1.1350477 5.0500002
-2.2604761 -1.1350477 5.0500002
-2.2508574 -1.1350477 5.0500002
-2.2412381 -1.1350477 5.0500002
0.46368 0.0073600002 3.8640001
-2.2316191 -1.1350477 5.0500002
-2.2123809 -1.1350477 5.0500002
-2.2027621 -1.1350477 5.0500002
-2.1931429 -1.1350477 5.0500002
-1.6725048 0.16614285 5.8150001
-1.6614286 0.16614285 5.8150001
-1.6503524 0.16614285 5.8150001
-1.6392761 0.16614285 5.8150001
-1.5838952 0.16614285 5.8150001
-1.572819 0.16614285 5.8150001
-1.5617428 0.16614285 5.8150001
-1.5506667 0.16614285 5.8150001
-1.5395905 0.16614285 5.8150001
-1.5285144 0.16614285 5.8150001
-1.5174382 0.16614285 5.8150001
-1.506362 0.16614285 5.8150001
-1.4952857 0.16614285 5.8150001
1.8145906 -0.95463246 4.1420002
-1.4399048 0.16614285 5.8150001
1.8224801 -0.95463246 4.1420002
-1.4288286 0.16614285 5.8150001
1.8343143 -0.95463246 4.1420002
-1.4177524 0.16614285 5.8150001
-1.4066762 0.16614285 5.8150001
-1.3956 0.16614285 5.8150001
0.1392 0.24260572 2.0880001
0.15908572 0.24260572 2.0880001
0.16703999 0.24658287 2.0880001
-0.20697333 -1.4488132 5.7189999
-0.19608 -1.4488132 5.7189999
-0.18518667 -1.4488132 5.7189999
-0.17429332 -1.4488132 5.7189999
-0.16339999 -1.4488132 5.7189999
-0.15250665 -1.4488132 5.7189999
-0.14161333 -1.4488132 5.7189999
-0.13071999 -1.4488132 5.7189999
-0.11982666 -1.4488132 5.7189999
-0.10893333 -1.4488132 5.7189999
-0.09804 -1.4488132 5.7189999
-0.087146662 -1.4488132 5.7189999
-0.076253325 -1.4488132 5.7189999
-0.043573331 -1.4488132 5.7189999
-2.6266115 -0.70750475 4.6430001
-2.6177676 -0.70750475 4.6430001
-2.60008 -0.70750475 4.6430001
-2.5912364 -0.70750475 4.6430001
-2.5823922 -0.70750475 4.6430001
0.62568003 -0.86268002 4.9770002
0.63516003 -0.86268002 4.9770002
0.64464003 -0.86268002 4.9770002
0.65412003 -0.86268002 4.9770002
0.66360003 -0.86268002 4.9770002
0.67308003 -0.86268002 4.9770002
0.68256003 -0.86268002 4.9770002
0.69204003 -0.86268002 4.9770002
0.70152003 -0.86268002 4.9770002
0.71100003 -0.86268002 4.9770002
0.72522002 -0.86268002 4.9770002
0.73944002 -0.86268002 4.9770002
0.74892002 -0.86268002 4.9770002
0.75840008 -0.86268002 4.9770002
-0.096999049 -0.020638095 2.1670001
0.21426032 0.26440632 1.795
-0.063978098 -0.024765715 2.1670001
-0.056410797 -0.022013968 2.1670003
-0.044027936 -0.023389842 2.1670001
-0.037148573 -0.028893335 2.1670001
-1.3526171 -0.51582855 6.0180001
-1.1924877 0.64771807 2.2520001
-1.3411543 -0.51582855 6.0180001
-1.1860533 0.64342862 2.2520001
-1.1753296 0.64342868 2.2520003
-1.3296914 -0.51582855 6.0180001
-1.3182286 -0.51582855 6.0180001
-1.3067657 -0.51582855 6.0180001
-1.2953029 -0.51582855 6.0180001
-1.2838399 -0.51582855 6.0180001
-1.2494515 -0.51582855 6.0180001
-1.2379886 -0.51582855 6.0180001
0.40400001 -1.1350477 5.0500002
-1.2265258 -0.51582855 6.0180001
0.41361907 -1.1350477 5.0500002
-1.2150629 -0.51582855 6.0180001
0.42323813 -1.1350477 5.0500002
-1.2036 -0.51582855 6.0180001
0.43285716 -1.1350477 5.0500002
-1.1921371 -0.51582855 6.0180001
0.44247618 -1.1350477 5.0500002
0.45209524 -1.1350477 5.0500002
0.4617143 -1.1350477 5.0500002
0.47133335 -1.1350477 5.0500002
0.48095241 -1.1350477 5.0500002
0.49057147 -1.1350477 5.0500002
0.505 -1.1350477 5.0500002
0.51942861 -1.1350477 5.0500002
0.52904761 -1.1350477 5.0500002
0.53866673 -1.1350477 5.0500002
0.54828572 -1.1350477 5.0500002
-0.43487713 -0.29278854 4.5209999
-0.42195997 -0.29278854 4.5209999
-0.41334856 -0.29278854 4.5209999
-0.40473714 -0.29278854 4.5209999
-0.3961257 -0.29278854 4.5209999
-0.38751426 -0.29278854 4.5209999
-0.37029141 -0.29278854 4.5209999
-2.4458401 -0.85320002 4.9770002
-2.4363601 -0.85320002 4.9770002
-0.88264 -0.51582855 6.0180001
-0.87117714 -0.51582855 6.0180001
-2.4173999 -0.85320002 4.9770002
-2.4079201 -0.85320002 4.9770002
-0.8482514 -0.51582855 6.0180001
-0.83678854 -0.51582855 6.0180001
-0.82532573 -0.51582855 6.0180001
-2.3652601 -0.85320002 4.9770002
-0.81386286 -0.51582855 6.0180001
-2.3510401 -0.85320002 4.9770002
-2.3415601 -0.85320002 4.9770002
-0.79093713 -0.51582855 6.0180001
-2.3320801 -0.85320002 4.9770002
-2.3226001 -0.85320002 4.9770002
0.23442 -0.12651238 3.9070001
0.34232762 -0.12651238 3.9070001
0.37209526 -0.12651238 3.9070001
-1.2947886 -1.866362 6.1240001
-1.2831239 -1.866362 6.1240001
-1.271459 -1.866362 6.1240001
-1.2597944 -1.866362 6.1240001
-1.2481295 -1.866362 6.1240001
-1.2364647 -1.866362 6.1240001
-1.2248 -1.866362 6.1240001
-1.2131352 -1.866362 6.1240001
-1.2014705 -1.866362 6.1240001
-0.11479048 0.11479048 2.1270003
-0.10736285 0.11546572 2.1270001
-0.085079998 0.11546572 2.1270001
-0.074951433 0.11546572 2.1270001
-0.06482286 0.11546572 2.1270001
-0.056720003 0.11546572 2.1270001
0.25595808 0.16505547 1.2558749
-0.023498287 0.11587086 2.1270001
-0.014180001 0.11546572 2.1270001
-0.0060771434 0.11546572 2.1270001
-1.8736533 -1.4379199 5.7189999
-1.8627599 -1.4379199 5.7189999
-1.8518666 -1.4379199 5.7189999
-1.8409733 -1.4379199 5.7189999
-1.8300799 -1.4379199 5.7189999
-1.8191867 -1.4379199 5.7189999
-1.4103885 0.49807429 2.589
-1.8082933 -1.4379199 5.7189999
-1.7973999 -1.4379199 5.7189999
-1.7865065 -1.4379199 5.7189999
-1.7756132 -1.4379199 5.7189999
-1.76472 -1.4379199 5.7189999
-1.7429333 -1.4379199 5.7189999
-1.7320399 -1.4379199 5.7189999
-1.7211466 -1.4379199 5.7189999
-1.7102534 -1.4379199 5.7189999
0.12945904 0.5406819 3.9979999
0.14468952 0.5406819 3.9979999
-0.9714914 0.49560857 2.589
0.32384002 0.01472 3.8640001
-2.3085713 -1.1254287 5.0500002
-2.2989526 -1.1254287 5.0500002
-2.2893333 -1.1254287 5.0500002
-2.2749047 -1.1254287 5.0500002
-2.2604761 -1.1254287 5.0500002
-2.2508574 -1.1254287 5.0500002
-2.2412381 -1.1254287 5.0500002
0.46368 0.01472 3.8640001
-2.2316191 -1.1254287 5.0500002
0.47104001 0.01472 3.8640001
-2.2027621 -1.1254287 5.0500002
-2.1931429 -1.1254287 5.0500002
-1.6725048 0.17721905 5.8150001
-1.6614286 0.17721905 5.8150001
2.1358266 -0.12651238 3.9070001
-1.6503524 0.17721905 5.8150001
-1.6392761 0.17721905 5.8150001
-1.5949714 0.17721905 5.8150001
-1.572819 0.17721905 5.8150001
-1.5617428 0.17721905 5.8150001
-1.5506667 0.17721905 5.8150001
-1.5395905 0.17721905 5.8150001
-1.5285144 0.17721905 5.8150001
-1.5174382 0.17721905 5.8150001
-1.506362 0.17721905 5.8150001
-1.4952857 0.17721905 5.8150001
1.8145906 -0.94674289 4.1420002
-1.4399048 0.17721905 5.8150001
-1.4288286 0.17721905 5.8150001
1.8303696 -0.94674289 4.1420002
-1.4177524 0.17721905 5.8150001
-1.4066762 0.17721905 5.8150001
-1.3956 0.17721905 5.8150001
-0.20697333 -1.4379199 5.7189999
-0.19608 -1.4379199 5.7189999
-0.18518667 -1.4379199 5.7189999
-0.17429332 -1.4379199 5.7189999
-0.16339999 -1.4379199 5.7189999
-0.15250665 -1.4379199 5.7189999
-0.14161333 -1.4379199 5.7189999
-0.13071999 -1.4379199 5.7189999
-0.11982666 -1.4379199 5.7189999
-0.10893333 -1.4379199 5.7189999
-0.09804 -1.4379199 5.7189999
-0.087146662 -1.4379199 5.7189999
-0.076253325 -1.4379199 5.7189999
-0.032679997 -1.4379199 5.7189999
-2.6266115 -0.69866091 4.6430001
-2.6177676 -0.69866091 4.6430001
-2.5912364 -0.69866091 4.6430001
-2.5823922 -0.69866091 4.6430001
0.62568003 -0.85320002 4.9770002
0.63516003 -0.85320002 4.9770002
0.64464003 -0.85320002 4.9770002
0.65412003 -0.85320002 4.9770002
0.66360003 -0.85320002 4.9770002
0.67308003 -0.85320002 4.9770002
0.68256003 -0.85320002 4.9770002
0.69204003 -0.85320002 4.9770002
0.71100003 -0.85320002 4.9770002
0.72048002 -0.85320002 4.9770002
0.73944002 -0.85320002 4.9770002
0.74892002 -0.85320002 4.9770002
0.75840008 -0.85320002 4.9770002
-0.24617141 0.27352378 1.795
-0.2376238 0.27694282 1.795
-0.22223808 0.27694282 1.795
-0.21881904 0.27694282 1.795
-0.20685238 0.27352378 1.795
0.12650476 0.27694282 1.795
0.14701904 0.27181426 1.795
-0.094935238 -0.014446667 2.1670001
-0.084616192 -0.014446667 2.1670001
0.2085619 0.27010474 1.795
-0.074297145 -0.014033906 2.1670001
0.21608381 0.27147236 1.795
-0.063978098 -0.014446667 2.1670001
0.22565715 0.27352378 1.795
-0.05778667 -0.016510477 2.1670001
0.23420475 0.2752333 1.795
-0.04953143 -0.016510477 2.1670001
-1.3182286 -0.50436568 6.0180001
-1.3067657 -0.50436568 6.0180001
-1.2953029 -0.50436568 6.0180001
-1.2838399 -0.50436568 6.0180001
-1.2723771 -0.50436568 6.0180001
-1.2609143 -0.50436568 6.0180001
-1.2494515 -0.50436568 6.0180001
-1.2379886 -0.50436568 6.0180001
0.40400001 -1.1254287 5.0500002
-1.2265258 -0.50436568 6.0180001
0.41361907 -1.1254287 5.0500002
-1.2150629 -0.50436568 6.0180001
-1.2036 -0.50436568 6.0180001
0.44247618 -1.1254287 5.0500002
0.45209524 -1.1254287 5.0500002
0.4617143 -1.1254287 5.0500002
0.47133335 -1.1254287 5.0500002
0.48095241 -1.1254287 5.0500002
0.49057147 -1.1254287 5.0500002
0.505 -1.1254287 5.0500002
0.51942861 -1.1254287 5.0500002
0.52904761 -1.1254287 5.0500002
0.53866673 -1.1254287 5.0500002
0.54828572 -1.1254287 5.0500002
0.70968759 0.15018286 1.546
-0.43487713 -0.28417712 4.5209999
-0.42195997 -0.28417712 4.5209999
-0.41334856 -0.28417712 4.5209999
-0.40473714 -0.28417712 4.5209999
-2.4458401 -0.84372008 4.9770002
-2.4363601 -0.84372008 4.9770002
-0.88264 -0.50436568 6.0180001
-2.4268801 -0.84372008 4.9770002
-0.87117714 -0.50436568 6.0180001
-2.4173999 -0.84372008 4.9770002
-2.4079201 -0.84372008 4.9770002
-0.8482514 -0.50436568 6.0180001
-0.83678854 -0.50436568 6.0180001
-0.82532573 -0.50436568 6.0180001
-2.3652601 -0.84372008 4.9770002
-0.81386286 -0.50436568 6.0180001
-2.3510401 -0.84372008 4.9770002
-0.79093713 -0.50436568 6.0180001
-2.3320801 -0.84372008 4.9770002
0.23442 -0.11907048 3.9070001
-1.2947886 -1.8546971 6.1240001
-1.2831239 -1.8546971 6.1240001
-1.271459 -1.8546971 6.1240001
-1.2597944 -1.8546971 6.1240001
-1.2481295 -1.8546971 6.1240001
-1.2364647 -1.8546971 6.1240001
-1.2248 -1.8546971 6.1240001
-1.2014705 -1.8546971 6.1240001
-0.11546572 0.12559429 2.1270001
-0.10533714 0.12559429 2.1270001
-0.095613718 0.12640457 2.1270001
-0.085080005 0.12559429 2.1270001
-0.075356573 0.12559429 2.1270001
-0.064822853 0.12559429 2.1270001
0.24940188 0.17386189 1.2589999
-0.055099428 0.12640457 2.1270001
0.25205386 0.17476027 1.2568572
-0.044565719 0.12559429 2.1270001
-0.03545 0.12559429 2.1270001
-0.024308573 0.12559429 2.1270001
-0.016205715 0.12559429 2.1270001
-0.0060771434 0.12356857 2.1270001
-1.8627599 -1.4270266 5.7189999
-1.8518666 -1.4270266 5.7189999
-1.8409733 -1.4270266 5.7189999
-1.8300799 -1.4270266 5.7189999
-1.8191867 -1.4270266 5.7189999
-1.4103885 0.50547147 2.589
-1.8082933 -1.4270266 5.7189999
-1.4054571 0.50793713 2.589
-1.7973999 -1.4270266 5.7189999
-1.7865065 -1.4270266 5.7189999
-1.7756132 -1.4270266 5.7189999
-1.76472 -1.4270266 5.7189999
-1.7538266 -1.4270266 5.7189999
-1.7429333 -1.4270266 5.7189999
-1.7320399 -1.4270266 5.7189999
-1.7211466 -1.4270266 5.7189999
-1.7102534 -1.4270266 5.7189999
-0.96656001 0.50300574 2.589
-1.824518 -0.12775619 4.1919999
0.32384002 0.02208 3.8640001
0.33487999 0.029440001 3.8640001
0.34592 0.029440001 3.8640001
-2.3085713 -1.1158096 5.0500002
-2.2893333 -1.1158096 5.0500002
-2.2749047 -1.1158096 5.0500002
-2.2604761 -1.1158096 5.0500002
-2.2508574 -1.1158096 5.0500002
0.45632002 0.029440001 3.8640001
-2.2412381 -1.1158096 5.0500002
0.46368 0.029440001 3.8640001
-2.2316191 -1.1158096 5.0500002
0.47104001 0.029440001 3.8640001
-2.2123809 -1.1158096 5.0500002
-2.2027621 -1.1158096 5.0500002
2.1283846 -0.11534952 3.9070001
-1.6614286 0.18829525 5.8150001
2.1358266 -0.11534952 3.9070001
2.1432686 -0.11534952 3.9070001
-1.6392761 0.18829525 5.8150001
-1.5949714 0.18829525 5.8150001
-1.572819 0.18829525 5.8150001
-1.5617428 0.18829525 5.8150001
-1.5506667 0.18829525 5.8150001
-1.5395905 0.18829525 5.8150001
-1.5285144 0.18829525 5.8150001
-1.5174382 0.18829525 5.8150001
-1.506362 0.18829525 5.8150001
-1.4952857 0.18829525 5.8150001
1.7988114 -0.93096381 4.1420002
-1.450981 0.18829525 5.8150001
1.8067011 -0.93096381 4.1420002
1.8145906 -0.93490857 4.1420002
-1.4399048 0.18829525 5.8150001
1.8224801 -0.93490857 4.1420002
-1.4288286 0.18829525 5.8150001
-1.4177524 0.18829525 5.8150001
-1.4066762 0.18829525 5.8150001
-0.20697333 -1.4270266 5.7189999
-0.17429332 -1.4270266 5.7189999
-0.16339999 -1.4270266 5.7189999
-0.15250665 -1.4270266 5.7189999
-0.14161333 -1.4270266 5.7189999
-0.13071999 -1.4270266 5.7189999
-0.11982666 -1.4270266 5.7189999
-0.10893333 -1.4270266 5.7189999
-0.09804 -1.4270266 5.7189999
-0.076253325 -1.4270266 5.7189999
-2.6266115 -0.68539524 4.6430001
-2.6177676 -0.68539524 4.6430001
-2.5912364 -0.68539524 4.6430001
-2.5823922 -0.68097335 4.6430001
0.62568003 -0.84372008 4.9770002
0.63516003 -0.84372008 4.9770002
0.64464003 -0.84372008 4.9770002
0.65412003 -0.84372008 4.9770002
0.66360003 -0.84372008 4.9770002
0.67308003 -0.84372008 4.9770002
0.69204003 -0.84372008 4.9770002
0.72048002 -0.84372008 4.9770002
0.73944002 -0.84372008 4.9770002
0.74892002 -0.84372008 4.9770002
0.75840008 -0.84372008 4.9770002
2.1270401 0.025760001 3.8640001
2.1344001 0.025760001 3.8640001
-0.24446189 0.28036192 1.795
-0.1812095 0.28378096 1.795
-0.17437142 0.28606033 1.795
0.04615714 0.2872 1.795
-0.090807617 -0.0082552386 2.1670001
-0.084616192 -0.0082552386 2.1670001
-0.076360956 -0.0061914292 2.1670001
-0.061914288 -0.0082552386 2.1670001
0.22907619 0.28207144 1.795
0.23420475 0.28207144 1.795
-0.04953143 -0.0082552386 2.1670001
-1.3296914 -0.49290287 6.0180001
-1.3182286 -0.49290287 6.0180001
-1.3067657 -0.49290287 6.0180001
-1.2953029 -0.49290287 6.0180001
-1.2838399 -0.49290287 6.0180001
-1.2723771 -0.49290287 6.0180001
-1.2609143 -0.49290287 6.0180001
-1.2494515 -0.49290287 6.0180001
-1.2379886 -0.49290287 6.0180001
0.40400001 -1.1158096 5.0500002
-1.2265258 -0.49290287 6.0180001
0.41361907 -1.1158096 5.0500002
-1.2150629 -0.49290287 6.0180001
0.42323813 -1.1158096 5.0500002
0.43285716 -1.1158096 5.0500002
-1.1921371 -0.49290287 6.0180001
0.44247618 -1.1158096 5.0500002
0.45209524 -1.1158096 5.0500002
0.4617143 -1.1158096 5.0500002
0.47133335 -1.1158096 5.0500002
0.48095241 -1.1158096 5.0500002
0.49057147 -1.1158096 5.0500002
0.505 -1.1158096 5.0500002
0.51942861 -1.1158096 5.0500002
0.52904761 -1.1158096 5.0500002
-1.8431847 -2.0896571 5.6259999
-1.8324685 -2.0896571 5.6259999
-1.8217523 -2.0896571 5.6259999
-0.43487713 -0.27556571 4.5209999
-1.7681713 -2.0896571 5.6259999
-1.7574552 -2.0896571 5.6259999
-1.7467389 -2.0896571 5.6259999
-1.7360228 -2.0896571 5.6259999
-1.7253066 -2.0896571 5.6259999
-1.7145904 -2.0896571 5.6259999
-1.7038742 -2.0896571 5.6259999
-1.693158 -2.0896571 5.6259999
-2.4458401 -0.83424002 4.9770002
-2.4363601 -0.83424002 4.9770002
-0.88264 -0.49290287 6.0180001
-2.4268801 -0.83424002 4.9770002
-0.87117714 -0.49290287 6.0180001
-2.4173999 -0.83424002 4.9770002
-2.4079201 -0.83424002 4.9770002
-0.85971427 -0.49290287 6.0180001
-2.3984401 -0.83424002 4.9770002
-0.8482514 -0.49290287 6.0180001
-0.83678854 -0.49290287 6.0180001
-2.3794801 -0.83424002 4.9770002
-2.3652601 -0.83424002 4.9770002
-0.81386286 -0.49290287 6.0180001
-2.3510401 -0.83424002 4.9770002
-0.80239999 -0.49290287 6.0180001
-2.3415601 -0.83424002 4.9770002
-0.79093713 -0.49290287 6.0180001
-2.3320801 -0.83424002 4.9770002
-0.77947426 -0.49290287 6.0180001
0.28279239 -0.10418667 3.9070001
0.29395524 -0.10418667 3.9070001
0.30511808 -0.10418667 3.9070001
0.32744381 -0.10418667 3.9070001
0.33488572 -0.10418667 3.9070001
-1.3414476 -1.8430325 6.1240001
0.34604856 -0.10418667 3.9070001
-1.3297828 -1.8430325 6.1240001
-1.3181181 -1.8430325 6.1240001
-1.3064533 -1.8430325 6.1240001
-1.2947886 -1.8430325 6.1240001
-1.2831239 -1.8430325 6.1240001
-1.271459 -1.8430325 6.1240001
0.41674668 -0.10418667 3.9070001
-1.2597944 -1.8430325 6.1240001
-1.2481295 -1.8430325 6.1240001
-1.2364647 -1.8430325 6.1240001
-1.2248 -1.8430325 6.1240001
-0.11479048 0.13504763 2.1270003
-0.10533714 0.13572288 2.1270001
-0.095208578 0.13572286 2.1270001
-0.087105714 0.13572286 2.1270001
-0.074951433 0.13572286 2.1270001
-0.06482286 0.13572288 2.1270001
-0.054694287 0.13572286 2.1270001
0.25127769 0.18583083 1.2539999
-0.044565719 0.13572288 2.1270001
-0.036462858 0.13369715 2.1270001
-0.025118861 0.13612799 2.1270001
-0.0040514288 0.13572286 2.1270001
-1.8627599 -1.4161333 5.7189999
-1.8518666 -1.4161333 5.7189999
-1.8409733 -1.4161333 5.7189999
-1.8300799 -1.4161333 5.7189999
-1.8191867 -1.4161333 5.7189999
-1.8082933 -1.4161333 5.7189999
-1.4029914 0.51533425 2.589
-1.7973999 -1.4161333 5.7189999
-1.7865065 -1.4161333 5.7189999
-1.7756132 -1.4161333 5.7189999
-1.76472 -1.4161333 5.7189999
-1.7538266 -1.4161333 5.7189999
-1.7429333 -1.4161333 5.7189999
-1.7320399 -1.4161333 5.7189999
-1.8524648 -0.11977142 4.1919999
-1.8444799 -0.11577904 4.1919999
-1.8258488 -0.11710984 4.1920004
-0.95176572 0.51779997 2.589
-2.2700953 -1.1061904 5.0500002
-2.2604761 -1.1061904 5.0500002
-2.2508574 -1.1061904 5.0500002
0.45632002 0.036800001 3.8640001
-2.2412381 -1.1061904 5.0500002
0.46368 0.036800001 3.8640001
-2.2316191 -1.1061904 5.0500002
0.47104001 0.036800001 3.8640001
-2.2220001 -1.1061904 5.0500002
-2.2123809 -1.1061904 5.0500002
-2.2027621 -1.1061904 5.0500002
2.1283846 -0.10418667 3.9070001
2.1358266 -0.10418667 3.9070001
2.1432686 -0.10418667 3.9070001
-1.572819 0.19937143 5.8150001
-1.5617428 0.19937143 5.8150001
-1.5506667 0.19937143 5.8150001
-1.5395905 0.19937143 5.8150001
-1.5285144 0.19937143 5.8150001
-1.5174382 0.19937143 5.8150001
-1.506362 0.19937143 5.8150001
-1.4952857 0.19937143 5.8150001
1.7988114 -0.92307431 4.1420002
-1.450981 0.19937143 5.8150001
1.8067011 -0.92307431 4.1420002
1.8145906 -0.92307431 4.1420002
-1.4399048 0.19937143 5.8150001
1.8224801 -0.92307431 4.1420002
-0.17429332 -1.4161333 5.7189999
-0.16339999 -1.4161333 5.7189999
-0.15250665 -1.4161333 5.7189999
-0.14161333 -1.4161333 5.7189999
-0.13071999 -1.4161333 5.7189999
-0.11982666 -1.4161333 5.7189999
-0.10893333 -1.4161333 5.7189999
-0.09804 -1.4161333 5.7189999
-0.076253325 -1.4161333 5.7189999
-0.054466665 -1.4161333 5.7189999
0.39952761 -0.08143238 1.336
0.40432286 -0.085780963 1.3343334
-2.604502 -0.67212951 4.6430001
0.60672003 -0.83424002 4.9770002
0.61620003 -0.83424002 4.9770002
0.62568003 -0.83424002 4.9770002
0.63516003 -0.83424002 4.9770002
0.64464003 -0.83424002 4.9770002
0.65412003 -0.83424002 4.9770002
0.66360003 -0.83424002 4.9770002
0.67308003 -0.83424002 4.9770002
0.68256003 -0.83424002 4.9770002
2.1270401 0.036800001 3.8640001
2.1344001 0.036800001 3.8640001
0.044447616 0.29403809 1.795
-0.082552381 0 2.1670001
-0.076360956 0 2.1670001
0.21881904 0.29745713 1.795
-1.2439619 0.6734553 2.2520001
-1.2396724 0.67560005 2.2520001
-1.3296914 -0.48144001 6.0180001
-1.3182286 -0.48144001 6.0180001
-1.3067657 -0.48144001 6.0180001
-1.2953029 -0.48144001 6.0180001
-1.2838399 -0.48144001 6.0180001
-1.2723771 -0.48144001 6.0180001
-1.2609143 -0.48144001 6.0180001
-1.2494515 -0.48144001 6.0180001
-1.2379886 -0.48144001 6.0180001
0.40400001 -1.1061904 5.0500002
-1.2265258 -0.48144001 6.0180001
0.41361907 -1.1061904 5.0500002
-1.2150629 -0.48144001 6.0180001
0.43285716 -1.1061904 5.0500002
-1.1921371 -0.48144001 6.0180001
0.44247618 -1.1061904 5.0500002
0.45209524 -1.1061904 5.0500002
0.4617143 -1.1061904 5.0500002
0.47133335 -1.1061904 5.0500002
0.48095241 -1.1061904 5.0500002
0.49057147 -1.1061904 5.0500002
0.505 -1.1061904 5.0500002
0.51942861 -1.1061904 5.0500002
0.52904761 -1.1061904 5.0500002
-1.8539009 -2.0789409 5.6259999
-1.8431847 -2.0789409 5.6259999
-1.8324685 -2.0789409 5.6259999
-0.4564057 -0.26695427 4.5209999
-1.8217523 -2.0789409 5.6259999
-0.44779426 -0.26695427 4.5209999
-1.8110362 -2.0789409 5.6259999
-0.43487713 -0.26695427 4.5209999
-1.7788876 -2.0789409 5.6259999
-1.7681713 -2.0789409 5.6259999
-1.7574552 -2.0789409 5.6259999
-1.7360228 -2.0789409 5.6259999
-1.7253066 -2.0789409 5.6259999
-1.7145904 -2.0789409 5.6259999
-1.7038742 -2.0789409 5.6259999
-1.693158 -2.0789409 5.6259999
-2.4363601 -0.82476002 4.9770002
-0.87117714 -0.48144001 6.0180001
-2.4173999 -0.82476002 4.9770002
-2.4079201 -0.82476002 4.9770002
-0.85971427 -0.48144001 6.0180001
-2.3984401 -0.82476002 4.9770002
-2.3889601 -0.82476002 4.9770002
-2.3794801 -0.82476002 4.9770002
-2.3652601 -0.82476002 4.9770002
-0.81386286 -0.48144001 6.0180001
-2.3510401 -0.82476002 4.9770002
-0.80239999 -0.48144001 6.0180001
-2.3415601 -0.82476002 4.9770002
-0.79093713 -0.48144001 6.0180001
-2.3320801 -0.82476002 4.9770002
-2.3226001 -0.82476002 4.9770002
-0.77947426 -0.48144001 6.0180001
-2.3131201 -0.82476002 4.9770002
-0.76801139 -0.48144001 6.0180001
-0.75654858 -0.48144001 6.0180001
-0.74508572 -0.48144001 6.0180001
0.28279239 -0.096744761 3.9070001
0.29395524 -0.096744761 3.9070001
0.30511808 -0.096744761 3.9070001
0.31256002 -0.096744761 3.9070001
0.32372284 -0.096744761 3.9070001
0.33488572 -0.096744761 3.9070001
-1.3414476 -1.8313676 6.1240001
0.34604856 -0.096744761 3.9070001
0.35721144 -0.096744761 3.9070001
-1.3297828 -1.8313676 6.1240001
0.36465335 -0.096744761 3.9070001
-1.3181181 -1.8313676 6.1240001
0.3758162 -0.096744761 3.9070001
-1.3064533 -1.8313676 6.1240001
-1.2947886 -1.8313676 6.1240001
-1.2831239 -1.8313676 6.1240001
0.40930477 -0.096744761 3.9070001
-1.271459 -1.8313676 6.1240001
0.41674668 -0.096744761 3.9070001
-1.2597944 -1.8313676 6.1240001
-1.2481295 -1.8313676 6.1240001
-0.11506057 0.14504115 2.1270001
-0.10533714 0.14585143 2.1270001
-0.095208578 0.14585143 2.1270001
-0.08913143 0.14585143 2.1270001
-0.06178429 0.1468643 2.1270001
-0.054694287 0.14585143 2.1270001
0.25401193 0.19584693 1.2580909
-0.044565719 0.14585143 2.1270001
-0.034842286 0.14585143 2.1270001
-0.024308573 0.14585143 2.1270001
-0.014180001 0.14585143 2.1270001
-0.0060771434 0.14585143 2.1270001
-1.8627599 -1.4052399 5.7189999
-1.8518666 -1.4052399 5.7189999
-1.8409733 -1.4052399 5.7189999
-1.8300799 -1.4052399 5.7189999
-1.8191867 -1.4052399 5.7189999
0.88149899 -0.1454019 4.7709999
-1.8082933 -1.4052399 5.7189999
0.8951304 -0.1454019 4.7709999
-1.7973999 -1.4052399 5.7189999
-1.3939505 0.5260191 2.5890002
0.90876186 -0.1454019 4.7709999
-1.7865065 -1.4052399 5.7189999
-1.3832657 0.52519715 2.589
-1.7756132 -1.4052399 5.7189999
-1.3758686 0.52519715 2.589
-1.76472 -1.4052399 5.7189999
0.93602473 -0.1454019 4.7709999
0.94511235 -0.1454019 4.7709999
0.95419997 -0.1454019 4.7709999
0.95513141 -0.67212951 4.6430001
-1.8444799 -0.1038019 4.1919999
-1.8364952 -0.1038019 4.1919999
-1.824518 -0.1038019 4.1919999
-0.9443686 0.52273142 2.589
-0.9345057 0.52273142 2.589
-2.2700953 -1.0965714 5.0500002
-2.2604761 -1.0965714 5.0500002
-2.2508574 -1.0965714 5.0500002
0.45632002 0.044160001 3.8640001
-2.2412381 -1.0965714 5.0500002
0.46368 0.044160001 3.8640001
-2.2316191 -1.0965714 5.0500002
0.47104001 0.044160001 3.8640001
-2.2220001 -1.0965714 5.0500002
2.1283846 -0.096744761 3.9070001
2.1358266 -0.096744761 3.9070001
2.1432686 -0.096744761 3.9070001
2.1544313 -0.096744761 3.9070001
1.790922 -0.9151848 4.1420002
1.8145906 -0.9151848 4.1420002
1.8224801 -0.9151848 4.1420002
-0.21786666 -1.4052399 5.7189999
-0.16339999 -1.4052399 5.7189999
-0.15250665 -1.4052399 5.7189999
-0.14161333 -1.4052399 5.7189999
-0.13071999 -1.4052399 5.7189999
-0.11982666 -1.4052399 5.7189999
0.38934854 -0.07379809 1.336
0.39406267 -0.076782435 1.3337779
0.44873711 -0.078592375 1.331
0.45761046 -0.078592375 1.331
0.4650825 -0.076528892 1.3318332
0.47205329 -0.07379809 1.336
0.60672003 -0.82476002 4.9770002
0.61620003 -0.82476002 4.9770002
0.62568003 -0.82476002 4.9770002
0.63516003 -0.82476002 4.9770002
0.64464003 -0.82476002 4.9770002
0.65412003 -0.82476002 4.9770002
0.54254097 -0.070986658 1.3310001
0.66360003 -0.82476002 4.9770002
0.67308003 -0.82476002 4.9770002
0.43668574 0.18923047 3.8210001
0.44396383 0.18923047 3.8210001
0.45488095 0.18559143 3.8210001
0.46579811 0.18923047 3.8210001
-0.10667428 0.30292758 1.795
-0.099152379 0.30087617 1.795
0.21796428 0.30429524 1.795
0.22223808 0.30429521 1.795
-1.2353829 0.68417907 2.2520001
0.44247618 -1.0965714 5.0500002
0.45209524 -1.0965714 5.0500002
0.4617143 -1.0965714 5.0500002
0.47133335 -1.0965714 5.0500002
0.48095241 -1.0965714 5.0500002
0.49057147 -1.0965714 5.0500002
0.505 -1.0965714 5.0500002
0.51942861 -1.0965714 5.0500002
0.52904761 -1.0965714 5.0500002
-1.8646171 -2.0682247 5.6259999
-1.8539009 -2.0682247 5.6259999
-1.8431847 -2.0682247 5.6259999
-1.8324685 -2.0682247 5.6259999
-0.4564057 -0.25834286 4.5209999
-1.8217523 -2.0682247 5.6259999
-0.44779426 -0.25834286 4.5209999
-1.8110362 -2.0682247 5.6259999
-0.43918285 -0.25834286 4.5209999
-1.7788876 -2.0682247 5.6259999
-1.7681713 -2.0682247 5.6259999
-1.7574552 -2.0682247 5.6259999
-1.7467389 -2.0682247 5.6259999
-1.7360228 -2.0682247 5.6259999
-1.7253066 -2.0682247 5.6259999
-1.7145904 -2.0682247 5.6259999
-1.7038742 -2.0682247 5.6259999
-1.693158 -2.0682247 5.6259999
-2.4363601 -0.81528008 4.9770002
-2.4268801 -0.81528008 4.9770002
-2.4173999 -0.81528008 4.9770002
-2.4079201 -0.81528008 4.9770002
-2.3984401 -0.81528008 4.9770002
-2.3889601 -0.81528008 4.9770002
-2.3605201 -0.81528008 4.9770002
-2.3510401 -0.81528008 4.9770002
-2.3415601 -0.81528008 4.9770002
-2.3320801 -0.81528008 4.9770002
-2.3226001 -0.81528008 4.9770002
-2.3131201 -0.81528008 4.9770002
-2.3036399 -0.81528008 4.9770002
-2.2941601 -0.81528008 4.9770002
0.30511808 -0.08930286 3.9070001
0.31256002 -0.085581906 3.9070001
0.32744381 -0.08930286 3.9070001
0.33488572 -0.085581906 3.9070001
0.34604856 -0.085581906 3.9070001
0.35721144 -0.085581906 3.9070001
0.36465335 -0.08930286 3.9070001
0.41674668 -0.08930286 3.9070001
-0.11344001 0.15598001 2.1270001
-0.10533714 0.15598002 2.1270001
-0.095883816 0.15530477 2.1270003
-0.062797144 0.15598001 2.1270001
-0.054694287 0.15598001 2.1270001
0.25368014 0.20476846 1.2553635
-0.044565719 0.15598002 2.1270001
-0.034437142 0.15598001 2.1270001
-0.024308573 0.1539543 2.1270003
-0.014180001 0.1539543 2.1270001
-0.0067523811 0.15665525 2.1270003
-1.8300799 -1.3943466 5.7189999
-1.8191867 -1.3943466 5.7189999
-1.8082933 -1.3943466 5.7189999
0.89967424 -0.13631429 4.7709999
-1.7973999 -1.3943466 5.7189999
0.90876186 -0.13631429 4.7709999
-1.7865065 -1.3943466 5.7189999
-1.3832657 0.53505999 2.589
0.91784954 -0.13631429 4.7709999
-1.7756132 -1.3943466 5.7189999
-1.3742247 0.53588194 2.5890002
0.9269371 -0.13631429 4.7709999
-1.76472 -1.3943466 5.7189999
0.93602473 -0.13631429 4.7709999
0.94511235 -0.13631429 4.7709999
0.95419997 -0.13631429 4.7709999
0.94628763 -0.66328573 4.6430001
0.95513141 -0.66328573 4.6430001
0.96397525 -0.66328573 4.6430001
-2.2749047 -1.0869524 5.0500002
0.43423998 0.051520001 3.8640001
-2.2604761 -1.0869524 5.0500002
0.44528002 0.055200003 3.8640001
-2.2508574 -1.0869524 5.0500002
-2.2412381 -1.0869524 5.0500002
0.46368 0.055200003 3.8640001
-2.2316191 -1.0869524 5.0500002
0.47104001 0.055200003 3.8640001
-2.2220001 -1.0869524 5.0500002
-2.2123809 -1.0869524 5.0500002
-2.2027621 -1.0869524 5.0500002
-2.1931429 -1.0869524 5.0500002
-2.1835239 -1.0869524 5.0500002
2.1135011 -0.081860952 3.9070001
2.1246638 -0.085581906 3.9070001
2.1358266 -0.085581906 3.9070001
2.1432686 -0.085581906 3.9070001
2.1544313 -0.085581906 3.9070001
-1.572819 0.21044762 5.8150001
-1.5617428 0.21044762 5.8150001
-1.5506667 0.21044762 5.8150001
-1.5395905 0.21044762 5.8150001
-1.5285144 0.21044762 5.8150001
-1.5174382 0.21044762 5.8150001
-1.506362 0.21044762 5.8150001
1.7988114 -0.90729529 4.1420002
1.8067011 -0.90729529 4.1420002
1.8145906 -0.90729529 4.1420002
1.8224801 -0.90729529 4.1420002
1.8461486 -0.90729529 4.1420002
1.8540382 -0.90729529 4.1420002
-0.17429332 -1.3943466 5.7189999
-0.15250665 -1.3943466 5.7189999
-0.14161333 -1.3943466 5.7189999
-0.13071999 -1.3943466 5.7189999
-0.11982666 -1.3943466 5.7189999
0.46799144 -0.065401427 1.3334999
0.47247744 -0.066163808 1.336
0.61620003 -0.81528008 4.9770002
0.62568003 -0.81528008 4.9770002
0.63516003 -0.81528008 4.9770002
0.64464003 -0.81528008 4.9770002
0.53747046 -0.063380957 1.3310001
0.65412003 -0.81528008 4.9770002
0.54423112 -0.063662648 1.331
0.66360003 -0.81528008 4.9770002
0.55014664 -0.06211333 1.331
0.67308003 -0.81528008 4.9770002
0.68256003 -0.81528008 4.9770002
0.69204003 -0.81528008 4.9770002
0.78748858 0.05721714 1.581
0.79351139 0.05721714 1.581
0.43668574 0.19650857 3.8210001
0.44396383 0.19650857 3.8210001
0.45488095 0.19650857 3.8210001
0.46579811 0.19650857 3.8210001
0.2085619 0.31455237 1.795
0.21745144 0.31523618 1.795
0.22394761 0.31797141 1.795
-1.2225143 0.69061339 2.2520001
-1.2153652 0.6949029 2.2520003
-1.2032114 0.69704759 2.2520001
-1.3182286 -0.46997714 6.0180001
-1.2953029 -0.46997714 6.0180001
-1.2838399 -0.46997714 6.0180001
-1.2723771 -0.46997714 6.0180001
-1.2494515 -0.46997714 6.0180001
-1.2379886 -0.46997714 6.0180001
-1.2265258 -0.46997714 6.0180001
-1.2150629 -0.46997714 6.0180001
0.44247618 -1.0869524 5.0500002
0.45209524 -1.0869524 5.0500002
0.4617143 -1.0869524 5.0500002
0.47133335 -1.0869524 5.0500002
0.48095241 -1.0869524 5.0500002
0.49057147 -1.0869524 5.0500002
0.505 -1.0869524 5.0500002
-0.96600085 0.6949029 2.2520001
0.51942861 -1.0869524 5.0500002
-0.95656383 0.69490284 2.2520001
-0.50807422 -0.24112 4.5209999
-0.49515712 -0.24112 4.5209999
-0.48223999 -0.24112 4.5209999
-1.8539009 -2.0575085 5.6259999
-0.47362855 -0.24112 4.5209999
-1.8431847 -2.0575085 5.6259999
-0.46501714 -0.2454257 4.5209999
-1.8324685 -2.0575085 5.6259999
-0.4564057 -0.2454257 4.5209999
-1.8217523 -2.0575085 5.6259999
-0.44779426 -0.2454257 4.5209999
-1.8110362 -2.0575085 5.6259999
-0.43918285 -0.24973141 4.5209999
-1.8003199 -2.0575085 5.6259999
-1.7896038 -2.0575085 5.6259999
-1.7788876 -2.0575085 5.6259999
-1.7681713 -2.0575085 5.6259999
-1.7574552 -2.0575085 5.6259999
-1.7467389 -2.0575085 5.6259999
-1.7360228 -2.0575085 5.6259999
-1.7253066 -2.0575085 5.6259999
-1.7145904 -2.0575085 5.6259999
-1.7038742 -2.0575085 5.6259999
-1.693158 -2.0575085 5.6259999
-0.87117714 -0.46997714 6.0180001
-2.4079201 -0.80580002 4.9770002
-0.85971427 -0.46997714 6.0180001
-2.3984401 -0.80580002 4.9770002
-0.8482514 -0.46997714 6.0180001
-2.3889601 -0.80580002 4.9770002
-0.83678854 -0.46997714 6.0180001
-0.82532573 -0.46997714 6.0180001
-2.3605201 -0.80580002 4.9770002
-0.81386286 -0.46997714 6.0180001
-2.3510401 -0.80580002 4.9770002
-0.80239999 -0.46997714 6.0180001
-2.3415601 -0.80580002 4.9770002
-0.79093713 -0.46997714 6.0180001
-2.3320801 -0.80580002 4.9770002
-2.3226001 -0.80580002 4.9770002
-0.77947426 -0.46997714 6.0180001
-2.3131201 -0.80580002 4.9770002
-0.76801139 -0.46997714 6.0180001
-2.3036399 -0.80580002 4.9770002
-2.2941601 -0.80580002 4.9770002
-0.74508572 -0.46997714 6.0180001
-1.3647771 -1.8197029 6.1240001
-1.3531125 -1.8197029 6.1240001
-1.3414476 -1.8197029 6.1240001
-1.3297828 -1.8197029 6.1240001
-1.3181181 -1.8197029 6.1240001
-1.3064533 -1.8197029 6.1240001
-1.2947886 -1.8197029 6.1240001
-1.2831239 -1.8197029 6.1240001
-1.271459 -1.8197029 6.1240001
-1.2323619 -2.0575085 5.6259999
-1.2597944 -1.8197029 6.1240001
-1.2216457 -2.0575085 5.6259999
-1.2481295 -1.8197029 6.1240001
-1.2109295 -2.0575085 5.6259999
-0.10533714 0.16408285 2.1270001
-0.097234294 0.16205715 2.1270001
-0.063472383 0.16340762 2.1270003
-0.054694287 0.16408285 2.1270001
0.2516253 0.21407156 1.2547143
-0.044565719 0.16408287 2.1270001
-0.034437142 0.16205715 2.1270001
-0.0060771434 0.16408285 2.1270001
-1.8191867 -1.3834532 5.7189999
-1.8082933 -1.3834532 5.7189999
0.89967424 -0.12722667 4.7709999
-1.7973999 -1.3834532 5.7189999
0.90876186 -0.12722667 4.7709999
-1.7865065 -1.3834532 5.7189999
-1.3824438 0.544101 2.5890002
0.91784954 -0.12722667 4.7709999
-1.7756132 -1.3834532 5.7189999
-1.3734028 0.54492283 2.589
0.9269371 -0.12722667 4.7709999
-1.76472 -1.3834532 5.7189999
0.93602473 -0.12722667 4.7709999
0.94511235 -0.12722667 4.7709999
0.95419997 -0.12722667 4.7709999
0.98146284 -0.12722667 4.7709999
0.96397525 -0.65444189 4.6430001
1.1360915 -0.89151621 4.1420002
1.143981 -0.89151621 4.1420002
0.42688 0.066239998 3.8640001
-2.2749047 -1.0773335 5.0500002
0.43423998 0.066239998 3.8640001
-2.2604761 -1.0773335 5.0500002
0.44528002 0.066239998 3.8640001
-2.2508574 -1.0773335 5.0500002
0.45632002 0.066239998 3.8640001
-2.2412381 -1.0773335 5.0500002
0.46368 0.066239998 3.8640001
-2.2316191 -1.0773335 5.0500002
0.47104001 0.066239998 3.8640001
-2.2220001 -1.0773335 5.0500002
-2.2123809 -1.0773335 5.0500002
-2.2027621 -1.0773335 5.0500002
-2.1931429 -1.0773335 5.0500002
2.1135011 -0.074419044 3.9070001
2.1246638 -0.074419044 3.9070001
2.1358266 -0.074419044 3.9070001
2.1432686 -0.074419044 3.9070001
-1.5395905 0.22152381 5.8150001
1.7988114 -0.89151621 4.1420002
1.8067011 -0.89546096 4.1420002
1.8145906 -0.89546096 4.1420002
1.8224801 -0.89546096 4.1420002
1.8343143 -0.89546096 4.1420002
1.8461486 -0.89546096 4.1420002
1.8540382 -0.89546096 4.1420002
-0.19608 -1.3834532 5.7189999
-0.17429332 -1.3834532 5.7189999
-0.16339999 -1.3834532 5.7189999
-0.15250665 -1.3834532 5.7189999
-0.14161333 -1.3834532 5.7189999
-0.13071999 -1.3834532 5.7189999
-0.11982666 -1.3834532 5.7189999
-0.10893333 -1.3834532 5.7189999
0.61620003 -0.80580002 4.9770002
0.62568003 -0.80580002 4.9770002
0.63516003 -0.80580002 4.9770002
0.64464003 -0.80580002 4.9770002
0.53747046 -0.058310475 1.331
0.65412003 -0.80580002 4.9770002
0.54722518 -0.057467807 1.3349999
0.66360003 -0.80580002 4.9770002
0.55348569 -0.058529522 1.336
0.67308003 -0.80580002 4.9770002
0.68256003 -0.80580002 4.9770002
0.69204003 -0.80580002 4.9770002
0.70152003 -0.80580002 4.9770002
0.71100003 -0.80580002 4.9770002
0.73944002 -0.80580002 4.9770002
0.77995998 0.069262855 1.581
0.78596437 0.064244084 1.5844285
0.79558104 0.062695242 1.589
0.80206662 0.062046666 1.589
0.43668574 0.20378667 3.8210001
0.44396383 0.20378667 3.8210001
0.2085619 0.32309997 1.795
0.2154 0.32480949 1.7949998
0.22309284 0.32395476 1.795
-1.2032114 0.70348191 2.2520001
-1.3296914 -0.45851427 6.0180001
-1.1646057 0.70777148 2.2520001
-1.3182286 -0.45851427 6.0180001
-1.2953029 -0.45851427 6.0180001
-1.2838399 -0.45851427 6.0180001
-1.2494515 -0.45851427 6.0180001
-1.2379886 -0.45851427 6.0180001
0.44247618 -1.0773335 5.0500002
0.45209524 -1.0773335 5.0500002
0.4617143 -1.0773335 5.0500002
0.47133335 -1.0773335 5.0500002
0.48095241 -1.0773335 5.0500002
0.49057147 -1.0773335 5.0500002
0.505 -1.0773335 5.0500002
0.51942861 -1.0773335 5.0500002
-0.94369531 0.70348191 2.2520001
-0.50807422 -0.23250857 4.5209999
-0.93726099 0.70562673 2.2520001
-0.49515712 -0.23250857 4.5209999
-1.8646171 -2.0467925 5.6259999
-0.48223999 -0.23250857 4.5209999
-1.8539009 -2.0467925 5.6259999
-0.47362855 -0.23250857 4.5209999
-1.8431847 -2.0467925 5.6259999
-0.46501714 -0.23250857 4.5209999
-1.8324685 -2.0467925 5.6259999
-0.4564057 -0.23250857 4.5209999
-1.8217523 -2.0467925 5.6259999
-0.44779426 -0.23250857 4.5209999
-1.8110362 -2.0467925 5.6259999
-1.8003199 -2.0467925 5.6259999
-1.7896038 -2.0467925 5.6259999
-1.7788876 -2.0467925 5.6259999
-1.7681713 -2.0467925 5.6259999
-1.7574552 -2.0467925 5.6259999
-1.7467389 -2.0467925 5.6259999
-1.7360228 -2.0467925 5.6259999
-1.7253066 -2.0467925 5.6259999
-1.7145904 -2.0467925 5.6259999
-1.7038742 -2.0467925 5.6259999
-1.693158 -2.0467925 5.6259999
-1.6824418 -2.0467925 5.6259999
-2.4268801 -0.79632002 4.9770002
-2.4173999 -0.79632002 4.9770002
-2.4079201 -0.79632002 4.9770002
-2.3984401 -0.79632002 4.9770002
-0.83678854 -0.45851427 6.0180001
-0.82532573 -0.45851427 6.0180001
-2.3652601 -0.79632002 4.9770002
-0.81386286 -0.45851427 6.0180001
-2.3510401 -0.79632002 4.9770002
-0.80239999 -0.45851427 6.0180001
-2.3415601 -0.79632002 4.9770002
-0.79093713 -0.45851427 6.0180001
-2.3320801 -0.79632002 4.9770002
-2.3226001 -0.79632002 4.9770002
-0.77947426 -0.45851427 6.0180001
-2.3131201 -0.79632002 4.9770002
-0.76801139 -0.45851427 6.0180001
-2.3036399 -0.79632002 4.9770002
-0.75654858 -0.45851427 6.0180001
-2.2941601 -0.79632002 4.9770002
-0.74508572 -0.45851427 6.0180001
-1.3647771 -1.8080381 6.1240001
-1.3531125 -1.8080381 6.1240001
-1.3414476 -1.8080381 6.1240001
0.34604856 -0.066977143 3.9070001
0.35721144 -0.066977143 3.9070001
-1.3297828 -1.8080381 6.1240001
-1.3181181 -1.8080381 6.1240001
-1.3064533 -1.8080381 6.1240001
-1.2947886 -1.8080381 6.1240001
-1.2831239 -1.8080381 6.1240001
-1.271459 -1.8080381 6.1240001
-1.2597944 -1.8080381 6.1240001
-1.2216457 -2.0467925 5.6259999
-1.2481295 -1.8080381 6.1240001
-1.2109295 -2.0467925 5.6259999
-0.072925717 0.17016001 2.1270001
-0.064822853 0.17421144 2.1270001
0.24940188 0.22542095 1.2589999
-0.054694287 0.17421144 2.1270001
0.25113332 0.22482412 1.2556667
-0.046186287 0.17421143 2.1270001
-0.014180001 0.17421144 2.1270001
-0.0060771434 0.17421144 2.1270001
-1.8191867 -1.37256 5.7189999
0.88149899 -0.11813904 4.7709999
-1.8082933 -1.37256 5.7189999
0.89967424 -0.11813904 4.7709999
-1.7973999 -1.37256 5.7189999
0.90876186 -0.11813904 4.7709999
-1.7865065 -1.37256 5.7189999
-1.3808 0.55231994 2.589
0.91784954 -0.11813904 4.7709999
-1.7756132 -1.37256 5.7189999
-1.3742247 0.55560768 2.5890002
0.9269371 -0.11813904 4.7709999
-1.76472 -1.37256 5.7189999
-1.3660058 0.55725145 2.589
-1.7538266 -1.37256 5.7189999
0.94511235 -0.11813904 4.7709999
-1.0445077 0.72759235 1.969
0.96328759 -0.11813904 4.7709999
-1.0332561 0.72759235 1.969
0.97237521 -0.11813904 4.7709999
-1.0257552 0.72759235 1.969
-0.98262471 0.72759235 1.969
-0.97512382 0.72759235 1.9690001
-0.96762282 0.72759235 1.969
-0.93011802 0.72571713 1.969
-0.92449236 0.72571719 1.969
-0.91605383 0.72665477 1.969
-0.90386474 0.72759235 1.9690001
-0.89636379 0.72759235 1.969
-0.88886279 0.72759235 1.969
-0.87386096 0.72571719 1.9690001
0.95513141 -0.64559805 4.6430001
0.96397525 -0.64559805 4.6430001
1.0887543 -0.8836267 4.1420002
1.0966439 -0.8836267 4.1420002
1.1242571 -0.8836267 4.1420002
1.1360915 -0.8836267 4.1420002
1.143981 -0.8836267 4.1420002
0.42688 0.073600002 3.8640001
-2.2749047 -1.0677143 5.0500002
0.43423998 0.073600002 3.8640001
-2.2604761 -1.0677143 5.0500002
0.44528002 0.073600002 3.8640001
-2.2508574 -1.0677143 5.0500002
0.45632002 0.073600002 3.8640001
-2.2412381 -1.0677143 5.0500002
0.46368 0.073600002 3.8640001
-2.2316191 -1.0677143 5.0500002
0.47104001 0.073600002 3.8640001
1.7988114 -0.8836267 4.1420002
1.8067011 -0.8836267 4.1420002
1.8145906 -0.8836267 4.1420002
1.8224801 -0.8836267 4.1420002
1.8343143 -0.8836267 4.1420002
1.8461486 -0.8836267 4.1420002
-0.25054666 -1.37256 5.7189999
-0.21786666 -1.37256 5.7189999
-0.20697333 -1.37256 5.7189999
-0.19608 -1.37256 5.7189999
-0.18518667 -1.37256 5.7189999
-0.17429332 -1.37256 5.7189999
-0.15250665 -1.37256 5.7189999
-0.14161333 -1.37256 5.7189999
-0.13071999 -1.37256 5.7189999
-0.11982666 -1.37256 5.7189999
-0.10893333 -1.37256 5.7189999
0.60672003 -0.79632002 4.9770002
0.61620003 -0.79632002 4.9770002
0.62568003 -0.79632002 4.9770002
0.63516003 -0.79632002 4.9770002
0.64464003 -0.79632002 4.9770002
0.65412003 -0.79632002 4.9770002
0.66360003 -0.79632002 4.9770002
0.67308003 -0.79632002 4.9770002
0.68256003 -0.79632002 4.9770002
0.69204003 -0.79632002 4.9770002
0.70152003 -0.79632002 4.9770002
0.71100003 -0.79632002 4.9770002
0.72048002 -0.79632002 4.9770002
0.77995998 0.072274283 1.581
0.78814405 0.076272003 1.589
0.79449999 0.077179998 1.589
0.41485146 0.21834287 3.8210001
0.42576858 0.21834287 3.8210001
0.43668574 0.21470383 3.8210001
0.44396383 0.21470383 3.8210001
0.21745144 0.33506665 1.795
0.22223809 0.33506665 1.795
-1.1646057 0.71420574 2.2520001
-1.1538819 0.7163505 2.2520001
-1.1495924 0.7163505 2.2520001
-1.2953029 -0.44705144 6.0180001
-1.2838399 -0.44705144 6.0180001
-1.2494515 -0.44705144 6.0180001
0.45209524 -1.0677143 5.0500002
0.4617143 -1.0677143 5.0500002
0.47133335 -1.0677143 5.0500002
0.48095241 -1.0677143 5.0500002
0.49057147 -1.0677143 5.0500002
0.505 -1.0677143 5.0500002
-0.50807422 -0.22389713 4.5209999
-0.49515712 -0.22389713 4.5209999
0.54828572 -1.0677143 5.0500002
-0.48223999 -0.22389713 4.5209999
-1.8539009 -2.0360761 5.6259999
-0.47362855 -0.22389713 4.5209999
-1.8431847 -2.0360761 5.6259999
-0.46501714 -0.22389713 4.5209999
-1.8324685 -2.0360761 5.6259999
-1.8217523 -2.0360761 5.6259999
-0.88364196 0.7163505 2.2520001
-0.44779426 -0.22389713 4.5209999
-1.8110362 -2.0360761 5.6259999
-0.87720764 0.7163505 2.2520001
-1.8003199 -2.0360761 5.6259999
-1.7896038 -2.0360761 5.6259999
-1.7788876 -2.0360761 5.6259999
-1.7681713 -2.0360761 5.6259999
-1.7574552 -2.0360761 5.6259999
-1.7467389 -2.0360761 5.6259999
-1.7360228 -2.0360761 5.6259999
-1.7253066 -2.0360761 5.6259999
-1.7145904 -2.0360761 5.6259999
-1.7038742 -2.0360761 5.6259999
-1.693158 -2.0360761 5.6259999
-1.6824418 -2.0360761 5.6259999
-0.72349972 0.7149207 2.2520003
-2.4268801 -0.78684008 4.9770002
-0.70562673 0.71420574 2.2520001
-2.4079201 -0.78684008 4.9770002
-2.3984401 -0.78684008 4.9770002
-0.83678854 -0.44705144 6.0180001
-0.82532573 -0.44705144 6.0180001
-2.3605201 -0.78684008 4.9770002
-0.80239999 -0.44705144 6.0180001
-0.79093713 -0.44705144 6.0180001
-0.77947426 -0.44705144 6.0180001
-0.76801139 -0.44705144 6.0180001
-0.75654858 -0.44705144 6.0180001
-0.74508572 -0.44705144 6.0180001
-1.3647771 -1.7963734 6.1240001
-1.3531125 -1.7963734 6.1240001
-1.3414476 -1.7963734 6.1240001
-1.3297828 -1.7963734 6.1240001
-1.3181181 -1.7963734 6.1240001
-1.3064533 -1.7963734 6.1240001
-1.2947886 -1.7963734 6.1240001
-1.2645104 -2.0360761 5.6259999
-1.2831239 -1.7963734 6.1240001
-1.271459 -1.7963734 6.1240001
-1.243078 -2.0360761 5.6259999
-1.2323619 -2.0360761 5.6259999
-1.2597944 -1.7963734 6.1240001
-1.2216457 -2.0360761 5.6259999
